# .PCD v.7 - Point Cloud Data file format
VERSION .7
FIELDS x y z
SIZE 4 4 4
TYPE F F F
COUNT 1 1 1
WIDTH 1736
HEIGHT 1
VIEWPOINT 0 0 0 1 0 0 0
POINTS 1736
DATA ascii
-457.2935 176.2549 3015.822
-447.4102 -185.6906 3182.998
-454.0758 435.1417 3020.92
-453.3905 167.9868 3054.936
-424.0582 292.3774 2958.771
-406.0535 52.17525 2939.175
-499.4504 -76.73752 3188.796
-484.885 -116.3934 3164.516
-449.4899 507.1986 3032.606
-440.3779 -168.0475 3123.373
-448.9616 366.7177 3118.478
-499.2213 -51.08603 3191.983
-499.4573 -77.29949 3188.851
-512.4462 316.9185 3142.426
-445.511 206.1035 3061.131
-445.8269 271.7733 3056.076
-446.26 74.41448 3077.691
-446.8676 191.7256 3068.57
-446.0443 273.5766 3059.911
-440.6502 -64.48101 3101.89
-442.996 307.3144 3061.12
-439.4123 27.11632 3038.439
-448.4861 -124.3506 3066.539
-514.5656 -551.8024 1722.745
1275.168 -759.8902 4095.195
2403.482 3424.073 12340.2
1027.509 -914.0858 3509.702
1197.699 329.5621 3995.568
2727.883 1000.714 12734.1
280.7347 -606.3101 4762.507
357.6949 -316.3089 3061.597
-672.5049 -931.2327 5511.438
-818.8427 -805.6489 5394.158
-567.3224 -249.0756 5397.977
-328.2334 -270.0122 5421.465
-350.5566 -135.9043 1390.294
-440.125 -792.5265 2494.583
-1284.723 -1378.191 4962.479
77.14486 -7.799871 78.64058
23296.67 -5494.145 79155.57
1469.235 -1774.655 5186.167
1468.215 -2470.841 7143.702
24.89034 342.2018 5242.277
822.3392 753.3735 4277.297
1057.891 -2148.859 19739.24
-534.0997 -941.7576 2956.569
2338.339 2236.939 12691.78
-557.571 -602.281 3087.29
76.74144 -7.665236 77.85796
-300.9436 -119.0811 1220.14
313.6766 72.70914 585.926
1452.755 -1107.072 5142.039
299.4334 -29.89786 555.8768
-557.4111 -562.3803 3772.047
95.31876 -10.85904 120.6453
-402.5404 -154.076 1565.181
-56.88006 67.25371 385.5835
588.3173 326.3404 3822.512
-133.9224 -580.8329 4401.399
365.1692 -484.7987 4260.022
254.2624 -120.0418 1809.117
-351.3916 251.4741 1412.12
-350.8379 108.499 1394.328
-411.4489 -248.7428 1413.681
-54.46569 -33.83924 371.6223
238.5784 -311.2762 1000.513
-436.5528 210.3437 1417.981
-637.2943 -315.1894 3468.935
-1039.663 -469.4615 3256.616
8216.58 -6106.197 20890.54
308.9747 -434.4333 2975.362
-300.4229 -159.283 1773.16
1970.807 -1622.091 14349.46
-373.3683 1897.212 15836.89
-2095.42 -929.0181 13425.78
2052.033 -1371.01 5119.999
1365.635 -1213.152 6947.952
-284.0475 682.6637 8872.575
1667.014 611.3356 11432.47
-504.4917 -231.5975 2657.396
443.6533 77.02246 4950.237
-634.3429 157.4327 2299.814
-615.5035 -226.3714 2279.293
112.6971 -204.6683 5582.946
1693.259 -977.9457 9817.919
1220.212 -765.3452 11674.83
-415.4475 -1061.609 4898.665
1154.373 -1187.428 4447.271
-500.4127 577.7785 5539.246
-857.1013 174.7643 4378.196
-353.2738 -163.5285 3539.896
1349.551 -1193.989 6851.568
-353.0872 -577.3358 5393.665
-655.5582 -292.6264 2894.493
-475.9395 -235.3863 2633.992
871.1553 -764.3213 4398.221
686.7706 -92.49458 3428.463
-96.5492 -931.0721 3759.025
765.029 -706.1759 2285.802
678.2943 -934.268 6693.85
2588.875 -1787.774 16264.6
-431.9548 -1090.181 5023.89
486.5159 -1193.309 6857.768
-274.7767 417.9497 4234.985
-235.1539 12.92445 1160.833
1202.137 -808.5148 2918.84
786.4859 -494.0644 4803.198
994.4203 -310.7045 5983.784
778.7797 -1089.005 4170.176
-456.8553 111.1539 6651.741
537.1656 -548.358 3878.432
-1131.428 -237.8648 3703.704
1721.115 -394.1831 5630.124
-182.2231 46.01665 3109.795
-170.4635 -99.86384 2224.536
496.9835 414.804 2188.51
806.0238 -710.9348 4049.64
58.95863 -19.76496 429.7764
-546.736 -244.341 1804.078
-451.8231 584.2639 6870.128
1359.107 -1489.544 9332.244
1444.518 -209.7311 4527.425
-23.35833 -1097.153 6462.734
1271.931 -200.4756 5926.302
-285.5499 339.226 3275.63
-290.7292 278.3401 2801.063
350.9447 142.9902 5343.656
-478.2782 -122.6732 2993.78
-332.0822 -525.0835 4384.476
35.68333 -310.8081 5926.676
-329.2853 65.04998 3100.573
-248.1326 -20.42415 4050.187
1624.472 2143.953 10584.75
776.1782 -680.7039 5245.739
979.2302 -757.7194 11633.04
-927.7014 -191.2887 3711.39
2470.844 -225.9884 20333.05
1038.891 -523.752 10161.33
1068.403 -493.5425 6705.688
337.7962 -52.96976 2988.85
-184.0065 236.8872 2272.248
-275.933 221.5099 2442.305
-42.40159 -615.4924 3645.246
-43.91132 68.9468 1244.798
-45.50656 -396.2757 3481.341
-210.483 -88.42558 2159.482
-454.7458 -407.9142 3400.055
-100.8035 183.9411 2473.808
-110.6942 -156.93 3150.89
-118.8527 -8.09481 2932.421
261.07 -194.04 2290.004
506.047 -344.8779 3666.212
-401.9474 6.214048 2976.954
1925.299 -3489.881 14535.3
1587.917 -4421.059 18723.32
-284.1981 -431.0667 3857.446
-343.8402 -309.1629 3043.559
-209.0653 -147.4193 2164.428
146.4144 -1102.484 5944.257
-91.42265 -808.3621 4616.188
-328.1454 307.6935 3052.293
-321.8307 -214.1995 3141.427
-87.90362 -709.6033 4227.648
1059.978 -998.3091 6767.196
-312.2627 231.5329 4809.877
-646.8978 -1166.373 9055.45
276.9654 570.2521 4501.872
-386.6629 -736.9219 5796.373
430.2543 1058.848 19549.93
204.7166 -1013.579 11734.52
-802.9663 -0.5343912 2696.3
-613.2688 -88.48528 2994.694
-645.3657 -35.20528 5579.002
17.28928 -262.5729 3307.364
14.54429 -257.7767 3277.311
192.9835 -143.8861 2528.842
-138.4274 51.33616 1899.823
-91.53855 172.4787 2283.571
9.188136 -348.085 3559.799
-110.5639 237.1257 2540.19
-220.816 -123.4646 7365.769
1831.112 -577.9315 11237.57
-1397.027 907.6917 5829.661
-107.8871 -993.9628 5894.919
1702.883 -560.7278 10470.29
487.1006 -1112.592 6980.815
1312.137 205.4274 13799.55
2078.771 -942.4028 12229.49
1685.615 -1042.076 11286.53
1152.395 -213.5811 8869.84
682.2944 -203.7437 6858.348
9077.558 -7612.481 52097.85
-203.8353 -100.0603 4465.12
898.4735 -382.2566 7139.18
-182.7122 -471.7058 6551.905
389.2466 699.2164 3627.445
225.3601 -172.2276 2083.118
332.9257 -207.0668 2360.859
319.3169 -196.6064 2315.194
328.6797 -177.0881 2340.616
342.9575 -131.56 2514.115
-145.247 224.7159 1924.023
-150.5544 147.8831 2151.001
648.9861 -955.133 5594.228
1055.125 -777.2926 5824.486
1057.036 -524.303 4079.658
-164.6703 478.0183 6119.362
-352.6817 -1146.653 13476.2
835.8769 -1133.651 5386.648
365.1907 450.204 1713.396
-135.3864 69.36803 730.8187
1223.12 -815.2164 14846.01
-241.0565 -510.0725 4038.02
481.6026 -883.9068 9201.597
792.9594 -1290.365 8626.495
2071.512 2655.512 14280.8
384.7927 -126.909 3386.667
337.8079 -149.407 4179.009
480.2413 -751.0572 7459
1286.326 -1347.861 7678.643
1466.561 -877.3215 4634.091
-420.9651 92.64854 6018.245
234.2757 -80.43694 2520.383
-16.04762 76.6041 1765.253
146.6192 -48.09328 2327.226
147.6519 -78.21424 3220.608
70.98585 -74.37473 3815.22
240.5254 -61.78213 2399.466
-404.0856 406.8185 2842.602
220.5413 347.9201 2708.914
-334.0628 222.9664 2657.698
-29.68046 123.0769 2048.411
-38.14899 82.50585 2009.807
-12.38301 33.45703 2360.196
-50.99508 82.10456 2068.324
-66.37452 162.5995 2114.777
-16.70516 2.87978 2659.962
-62.60184 180.4803 2328.875
-66.75751 162.9805 2116.408
14.8694 76.19722 1957.268
131.6339 121.9908 2309.092
-0.5601578 56.53854 2074.865
-2.770849 66.9502 2052.531
16.35158 55.62915 2072.68
-22.27256 87.16296 1931.057
856.8439 -161.1691 2675.947
-252.7739 -103.0612 3072.004
1119.082 -1072.569 7102.927
755.029 -808.9011 5511.792
658.7173 -330.0914 2517.788
1171.405 -557.3285 4338.063
198.9162 275.6573 12691.64
720.6453 -516.0562 18227.54
885.3257 -342.1259 4482.128
761.9183 -638.3793 4143.292
927.6681 71.58932 4457.449
730.3906 -740.7487 4625.48
1179.779 73.35603 5371.54
-180.6166 -881.3021 10995.49
899.6013 364.42 4608.309
331.0498 -931.4702 5065.031
422.8217 -390.7704 3088.088
184.8271 -110.1367 1930.305
313.775 -138.4078 1941.593
381.2116 31.60592 2107.451
347.7806 46.50048 2032.999
1288.689 -1103.759 8699.789
119.7257 240.6624 1801.501
300.8322 566.9407 3110.871
301.0052 213.9686 3293.094
-366.7588 191.5943 2162.956
959.8016 321.3024 4788.818
-7.389159 -782.0539 4630.536
579.3114 -853.6638 5810.788
1062.357 -445.8302 5171.648
-170.97 -336.7632 3267.674
-116.7144 -5.553058 1473.428
300.7196 -238.34 2849.756
325.5114 -144.3927 1996.279
237.6676 -113.1059 2583.003
307.6072 -305.7913 2826.612
-124.0923 -204.1732 3418.645
283.4377 187.1577 2256.169
232.0032 -276.9728 2792.467
-276.4435 -91.59864 1832.389
-40.3082 -400.9948 3500.742
169.2755 -338.4632 2602.756
334.6691 -339.806 2614.614
-154.3706 24.48916 2449.574
-262.4508 -43.09694 1783.944
135.9162 -125.0511 2495.502
247.9596 284.1344 3032.867
168.8262 -109.3582 2024.152
-120.1159 -155.3289 2141.578
-166.6073 27.78403 1911.953
174.8836 -176.3026 2928.858
393.2604 -44.00665 3313.361
162.7681 -187.5506 2791.73
703.7061 819.0571 3773.072
225.6281 -123.7565 2070.025
200.5929 -55.50712 3217.29
195.6772 32.07169 2016.984
-181.5493 20.45196 1972.778
140.7174 201.978 2262.971
-47.96543 -194.1833 2457.044
192.1422 -108.5386 2055.325
297.9639 -127.912 3564.569
181.5645 33.91579 1978.253
149.7656 209.1907 2311.59
65.73602 -149.4455 3286.886
-138.9493 19.95524 2360.314
-19.98174 89.11471 2645.579
239.494 -81.07555 2396.191
2.987092 100.3434 2463.865
-53.64871 207.8634 2707.558
119.335 -31.89196 2427.159
217.6002 -45.36726 2059.691
145.996 -119.791 2230.588
-574.1515 399.8335 2392.683
1142.284 -1032.654 6002.284
1372.646 -875.4318 12616.1
-309.86 -738.171 6828.943
-523.7094 -769.4182 2903.538
-333.282 -539.7103 4431.713
-368.2602 -335.7 3180.974
-273.5452 262.9478 2656.125
-301.797 64.0183 2890.047
-300.9407 -30.44245 2856.818
14.61401 -120.1343 7192.516
-345.8478 -236.4197 3293.378
-377.7277 -267.5944 3506.72
-100.8395 388.1492 5672.729
-373.6913 57.88437 3344.299
-386.8963 89.63296 3356.499
-354.4969 -447.5664 3374.569
1102.644 -569.9174 3947.318
1140.552 -551.5057 6944.783
-487.5861 254.6792 1739.426
-1290.777 -1389.871 4822.722
-221.0161 -68.92067 1700.586
-155.5795 9.546329 2530.221
-246.6344 64.26269 2341.477
-92.83468 -122.4536 3067.09
-179.7381 172.3895 1766.286
354.5992 -326.0108 2812.259
-117.3962 4.502442 1421.906
380.1784 -248.3938 3014.219
229.0852 -215.9616 3222.483
280.51 -310.5852 2530.056
367.902 -278.8921 2768.136
626.2846 -510.9783 3638.988
333.0936 -334.3362 2938.525
-90.05833 174.1143 2307.919
-141.6619 -275.8681 2897.586
-97.41317 -281.5749 2717.163
-323.9631 66.47196 2752.28
-339.9575 -42.82212 2719.315
-323.1265 66.17062 2752.498
15.44663 51.08989 2065.128
-15.49376 43.84528 2011.221
-23.76445 68.86735 1932.27
-335.8904 170.5409 2810.012
16.33346 74.82317 2021.598
-13.65898 103.4767 1980.134
18.97382 58.36113 2113.421
-23.8684 68.72717 1932.635
-23.1881 69.38706 1929.789
-309.4536 80.72495 2749.892
-22.88572 129.2416 2134.323
-16.76765 90.00818 1949.671
-23.24442 81.65882 1940.63
-12.53903 56.2873 2098.811
-23.12135 69.42219 1929.588
-12.27459 98.19835 1937.674
-24.58264 134.9277 2183.094
-318.8336 -33.7479 2711.938
6.964549 50.97902 1981.722
-344.001 455.7591 2981.357
-15.89882 110.4984 2027.685
-15.52317 107.589 1995.423
3.059958 101.271 1915.029
-2.444906 92.68848 1887.796
42.47952 53.42379 2056.37
-274.3551 -102.8632 2671.761
107.1286 95.69891 2341.749
-24.20768 81.65294 1946.297
-11.3251 89.15341 2087.47
8.944873 92.54488 2048.758
-14.99948 46.79863 1999.373
-19.20933 41.66175 2032.674
0.7965337 68.66479 2089.534
-20.45806 72.18929 1919.24
-20.8057 71.7186 1914.025
-253.2138 -30.28351 2676.599
-425.7711 -222.2328 2419.341
-460.7837 -213.1399 3216.343
2021.105 -864.2499 6885.922
-385.5512 -634.7009 3322.362
-659.793 -930.3854 2983.597
112.8604 -638.1542 6606.991
1032.039 -689.1829 5636.986
1565.472 -1065.777 8004.564
981.7528 -753.1586 11746.36
72.06077 23.44232 171.7337
922.6958 -608.7712 5081.156
6.883276 32.03709 229.6202
-168.8521 276.3244 2829.075
-597.684 -335.2134 1954.903
164.0859 57.88769 10279.42
1691.148 -289.4617 7986.566
163.086 266.199 2134.31
1691.881 -287.8315 7953.898
681.7034 -617.5262 2080.027
419.6492 -910.6812 3089.053
90.75735 -939.025 2939.474
-187.2357 137.9142 760.9009
-207.7588 158.0222 969.1802
1412.747 -1026.331 3463.831
1682.941 -351.9103 7882.849
-1522.797 894.4946 5091.571
470.7636 -1241.586 4259.869
-556.2328 338.3069 1565.523
319.52 -1200.05 5311.965
560.368 -1208.393 7934.855
-317.5888 -726.6349 6483.178
2380.83 -263.6354 7843.716
607.9449 -1517.85 8682.586
-180.0572 644.6357 5645.367
264.5935 525.2328 4159.869
133.6744 -1087.893 7384.871
1053.417 -477.1343 5823.011
1491.804 -303.2469 6970.539
1554.805 -1560.228 22586.41
595.9083 -796.9796 5737.405
-90.05099 -107.1522 3704.253
1781.589 727.1327 10809.84
2046.433 -1062.562 7109.246
-1078.85 -1163.717 4032.683
200.0627 -871.5341 10290.77
-1023.542 -1069.296 5725.757
-40.43736 -442.946 6185.816
-311.146 215.5752 1520.562
1386.298 -299.2542 4557.16
-545.2444 -238.867 3667.299
-463.6984 -767.8531 4392.913
429.2616 -1590.862 7325.866
-326.3656 -892.7301 5243.295
-9.100482 -313.6753 5018.69
982.0985 -892.9324 3201.852
249.173 -1060.969 7070.59
217.837 -1038.339 3190.422
-508.2229 -119.9359 6265.899
404 -353.319 3029.82
-612.6229 506.9003 3558.544
468.3649 -172.2462 2833.124
-551.5882 429.6983 2839.516
171.4772 -561.2362 3813.517
-589.1046 -93.27953 4224.674
-232.7079 408.4632 4832.871
350.6746 -157.6094 2055.032
87.81672 91.56609 2462.169
355.7149 -160.7901 2067.232
251.7975 -242.9633 2275.579
344.8814 -144.399 1986.392
237.751 -167.1334 2209.976
1133.394 343.1053 4233.108
897.1 398.3105 4467.91
-408.676 374.7887 3250.969
-122.6752 2.744928 2177.962
-349.927 140.1967 2734.082
-447.2174 494.1896 3384.884
-140.019 33.34172 2205.281
16.83842 62.17012 2010.616
18.91069 110.9484 1989.928
67.78728 41.72608 2219.429
88.55811 57.40162 2256.091
-40.867 138.6973 2092.542
-289.0965 164.3951 2653.285
-333.4417 202.1642 2699.474
-30.08275 66.45238 2166.951
-40.69834 102.3301 2174.346
-42.3793 58.55987 2024.003
234.7822 -103.9359 2888.431
-291.7388 85.07747 2587.29
-41.98794 139.3674 2097.634
3.155917 -15.10738 2223.061
7.405444 48.70089 2234.061
58.30894 173.4402 2097.822
-221.1955 127.751 2601.673
79.15781 -19.39602 2606.792
4.309091 90.46764 1996.496
51.20425 145.4755 2137.414
-253.1714 124.8023 2584.447
-288.8747 333.0387 2658.95
-34.77835 115.2508 1944.774
33.8131 131.952 2119.101
-250.0899 -68.14938 2593.782
-283.4424 -65.88781 2617.672
-338.4461 466.8062 2814.449
-200.7337 132.5706 2545.835
-250.1672 -69.11824 2594.037
-269.627 385.8261 2724.984
-265.5453 -44.18454 2601.48
-299.7595 292.6465 2693.348
-338.2733 466.1649 2813.96
-346.4311 298.9815 2725.541
-352.3386 200.3816 2689.896
-330.5487 149.8983 2660.925
-197.6096 10.37817 2534.952
-319.091 246.6048 2660.589
-508.1458 34.24546 4301.114
2167.479 -1044.094 11171.15
979.2979 -1262.709 6258.341
-119.7776 491.3065 7411.997
-344.1632 322.3388 2814.015
1988.384 -468.2168 15163.58
624.9314 -237.2695 3360.407
635.7795 -242.1138 3405.046
775.2454 -61.57871 4381.328
279.5521 44.4102 1868.969
491.6689 66.48759 2840.481
194.0047 331.1483 1957.902
-330.9501 -282.367 5382.7
985.7271 -73.7299 7083.966
-431.9093 -694.1573 3735.743
1248.092 -961.537 7762.407
1448.292 -280.4398 4517.735
7623.3 2342.814 15569.47
2910.346 -1643.629 29154.39
1212.842 -1002.629 7186.769
596.6566 -651.5202 11987.75
-40.28077 138.5964 2085.43
-11.71546 86.42691 1978.426
-357.9518 383.0464 2732.428
54.55789 67.88769 2146.275
-13.67561 102.0086 1966.986
-21.61381 84.21931 1950.353
-21.00285 98.18617 1925.829
-389.6216 435.2915 2796.42
39.84091 132.8548 2073.83
-31.7419 133.4543 2063.958
197.9506 -85.13165 2795.914
-153.1895 153.3546 1686.922
239.9085 -59.34012 2129.613
228.4465 -95.89876 2117.316
-163.6961 -39.64144 1856.151
-227.5887 181.1403 2122.79
-196.7631 -83.43053 2043.355
-165.5937 26.21542 2157.851
244.5894 461.3756 8847.597
185.3638 367.0247 6712.466
3879.673 -7307.326 41194.04
-321.3164 393.3559 3829.839
549.6875 209.8364 3143.005
2203.515 -966.0508 7464.83
-993.8132 -1506.926 8502.877
-240.8786 312.4509 3038.847
-199.9942 -740.1962 5444.178
1260.392 -873.9261 3080.143
1302.969 -997.4133 3124.176
1737.334 -450.6128 10477.04
1364.701 590.9799 4387.273
683.5267 -134.6115 1499.68
-475.9347 -784.7872 4470.396
344.8915 -1188.984 5491.135
2747.989 -102.4864 25228.67
-265.9766 613.7525 8764.333
3148.652 -1066.202 21920.59
335.9414 -93.50359 3177.804
374.4375 -377.8211 6238.301
356.5551 57.386 3350.44
332.1887 -38.32669 3097.639
196.375 -79.56367 2375.493
404.5519 549.5443 3931.949
-142.7137 -5.10479 3124.436
1492.028 92.72279 12841.61
165.8105 -61.57574 2419.7
464.9989 -17.69084 4473.327
253.9896 -81.13205 2506.89
134.2973 -125.2916 2514.204
-12.14719 159.6291 2549.274
412.3581 77.5724 3925.168
-27.58681 86.88783 2512.957
234.9056 -107.891 2531.732
-28.31499 41.82373 2537.265
-3.556293 -127.4028 3546.522
200.7899 -56.56986 2373.453
-151.103 157.6717 1678.41
-153.1133 158.6801 1685.704
-102.9747 8.516856 2538.142
3151.875 -3471.385 104572.8
242.7806 -938.9184 8128.754
1762.973 -979.6507 14614.76
1083.882 -998.9639 3527.941
1324.388 -924.1601 3216.962
-294.6089 -829.8756 4600.173
2505.877 -1803.753 12820.02
-1718.183 1128.888 5891.849
-1707.248 1124.036 5858.399
152.3505 -138.7978 2563.379
258.4083 -88.88174 2598.783
448.9796 -144.0083 4452.817
236.9955 -116.2208 2424.873
195.6919 -101.1493 2344.807
103.7158 -171.4246 2978.886
364.397 -33.67945 3182.117
93.28802 -176.0624 2811.05
196.0224 -109.1242 2256.893
-188.3831 138.1725 1981.25
140.1799 -206.2636 2604.876
228.059 -39.54208 2342.976
-48.59007 -153.7607 2682.162
355.9542 -56.69462 4315.984
259.3038 -69.87363 2470.437
87.75447 -169.8293 2803.448
238.5021 104.7799 2095.515
181.7312 -181.0576 4047.259
198.1294 295.2849 2125.809
563.108 -265.8799 2467.901
-121.4551 -157.1406 2143.16
-195.0695 184.9468 1984.249
-129.7961 39.52803 1856.322
708.2136 -97.86243 6200.278
222.3064 -174.4137 2420.855
-166.2434 96.76178 1684.228
-188.641 142.9112 1978.269
-148.3096 24.66681 1782.625
-176.5671 169.2579 1757.897
-51.54166 -235.7996 2565.541
-600.5599 221.0879 2156.786
218.7143 -962.028 6327.728
-214.2652 -44.4143 1264.02
290.6295 -673.0487 5632.108
1494.109 -221.1178 4714.286
-774.9807 59.99878 2512.708
1537.943 -844.4276 7208.734
618.9216 -1059.229 6069.541
377.1502 9.011201 2549.787
109.5054 -401.9959 2883.635
103.0397 -321.9931 2919.071
598.8206 238.9723 2617.588
413.7835 -326.4136 2813.365
275.2916 -226.0639 2680.298
245.6857 -173.8001 2622.372
477.4329 -535.6393 4270.279
392.9219 -696.1405 5685.388
244.5426 -293.057 2858.848
424.4098 -326.4781 2981.792
-72.31783 -361.6378 2805.84
15.34873 -301.8865 3429.3
-128.2292 -232.6604 2682.104
-170.4927 -476.5418 5859.829
-348.3791 71.68941 3260.728
-246.1443 -31.32976 4025.858
12.56201 -106.3138 5961.945
1720.357 22.27681 11533.65
206.3934 29.55758 2044.81
211.0981 40.11904 2051.717
123.5557 -119.6223 4474.486
51.90444 -115.9506 3027.457
-21.70761 -171.0732 3237.643
-17.01558 81.72729 2109.715
275.2745 -19.26092 3076.271
210.0712 -55.14649 3294.673
-386.3244 462.9466 3083.122
10.16324 65.37308 2113.533
-375.7628 -6.826666 2776.642
-339.6412 -66.72157 2713.176
-450.0587 410.5487 2978.405
-366.9026 -29.95985 2649.494
-294.8213 -46.12558 2600.478
-198.6932 -15.86988 2502.469
-289.9513 -92.82641 2608.177
5.758524 82.43996 1941.933
50.67964 43.235 2098.513
27.37192 59.19436 2087.585
48.1068 44.00813 2116.285
-14.55249 43.19645 2018.085
-251.8613 -29.72689 2675.977
-288.9826 256.1389 2627.661
156.3789 170.3215 7310.472
-155.6515 -415.4313 5378.527
-21.49705 -503.6519 5312.053
637.0885 -1537.914 9035.605
3482.019 -4106.614 22420.6
-272.4016 399.6412 4322.477
148.5901 168.0437 7049.365
1132.614 -1131.088 8794.157
-302.0446 203.2789 2684.236
-380.0514 105.7561 3284.396
-114.4989 423.5907 5726.707
780.3341 -700.4933 2516.692
985.0097 -1032.547 8150.982
1315.914 -913.1748 9178.951
1064.593 -988.4135 3391.562
960.3205 -1249.534 8652.678
1143.284 -793.6845 7988.271
232.8778 -726.4127 11989.27
1221.399 -672.4732 3935.301
-498.8112 -805.5961 4622.652
-35.47175 126.6365 2852.186
9.541168 88.46529 2062.423
-16.17718 95.48022 2008.417
-112.4091 278.2588 2747.379
18.44628 70.32379 2047.835
24.08848 76.73711 2077.996
-79.70329 38.70113 2341.416
-173.0228 190.2825 2817.836
19.17358 69.96519 2050.57
-317.7802 309.6129 2848.519
20.26436 69.48782 2054.438
-229.1982 0.2330358 2901.737
-549.5745 -263.4669 3579.563
2282.781 -352.6228 18758.55
1070.762 1441.801 5339.358
1089.542 1459.145 5420.808
2723.471 -163.4453 17906.15
1321.61 -556.2319 3288.133
1334.383 -856.7876 12838.2
429.1993 132.8207 4437.485
559.2489 -189.4192 4337.359
360.1908 -183.0316 2479.424
-129.032 16.75974 2065.31
3582.129 -2304 22078.99
260.2901 179.4309 2186.311
166.103 120.6083 1631.717
204.0424 -10.28149 1620.188
-638.7866 37.13845 2600.205
4674.708 -3355.484 23621.54
1137.161 -849.3445 8914.799
-278.4223 243.8407 3627.836
-309.4771 206.2866 2759.634
-388.1866 104.8167 3332.389
158.3004 167.6338 7425.667
-301.4747 -467.5274 4084.695
-320.9229 -5.840421 3779.547
-154.7441 -402.9391 5247.888
967.5485 -1359.067 8217.659
10.76596 89.36793 2068.243
-829.0239 317.8165 4267.351
-7.468806 95.87591 2045.309
31.31887 75.77199 2054.701
34.02573 75.97003 2066.189
-17.14324 79.31866 2040.291
-25.90062 76.58852 2056.138
-475.105 215.7269 3241.231
13.14048 84.07031 2060.033
22.68654 76.58288 2068.892
33.07117 76.60339 2066.716
1286.769 -523.7724 11069.95
968.237 -534.1249 4728.351
-61.02694 47.78616 2122.98
197.9603 -46.63968 2856.392
234.5958 -12.61503 2747.567
-343.9819 220.4017 2703.668
-358.2528 397.6987 2740.122
-543.9477 483.4767 3172.106
603.7865 212.2932 5489.57
75.13033 184.5287 2206.228
-457.1002 295.7268 3278.729
369.0553 450.2711 3741.527
306.354 -19.35487 2925.019
-76.16308 80.47794 2181.282
-3309.083 -344.3586 15030.51
-306.8467 138.6002 2687.766
-25.91615 35.45164 2823.544
-64.50569 28.80958 2123.354
1464.151 -728.8508 8102.596
1739.522 -750.3384 11087.67
1192.862 -1373.116 8302.37
908.3956 139.2573 9680.02
-25.2257 -984.5328 4626.415
318.1793 -1053.421 4994.668
-2788.472 -2260.93 20803.21
1085.516 -1409.875 7348.983
851.5732 -940.7692 4386.354
1302.465 -1107.49 7042.718
293.4928 -1074.312 17069.3
1120.047 -705.5684 9892.029
538.011 -737.3988 3973.875
611.1575 -116.1883 2625.44
243.1993 -825.9407 4399.359
259.6356 -282.0242 2436.695
-66.99001 47.80204 1523.29
162.7724 144.617 2362.796
-133.0403 135.0756 1510.917
-160.7475 461.6955 5902.1
345.4398 -157.9453 2039.94
332.111 -163.4764 2397.933
-142.8603 196.4224 2290.823
383.4977 -85.88948 2113.569
316.8285 -283.2675 2398.316
275.4677 -156.3958 2244.493
276.0557 -157.4742 2252.158
-71.75021 -315.6896 2578.112
559.9604 -102.914 2509.827
-741.6272 175.5675 4992.98
113.3432 -1111.899 8072.834
35.85274 51.83256 2168.542
-318.626 183.4755 2654.337
114.0444 15.89901 2330.188
-221.939 187.3723 2577.984
-346.5994 193.1618 2694.78
-305.2386 130.6451 2622.331
100.6494 24.51389 2266.423
146.9873 19.63432 2272.633
109.034 44.13836 2463.538
156.3042 259.6493 2379.686
119.4707 40.47911 2521.499
-151.4448 18.31826 2524.344
120.9694 119.2354 2290.448
78.5448 -8.103204 2907.209
303.3775 19.51474 3561.049
-18.79164 96.70631 2612.119
394.388 438.7263 3185.157
-382.5624 -74.70285 3042.025
-294.4726 4.761809 2909.475
-254.0544 173.9533 2703.444
-129.9083 -89.06316 1874.168
48.26898 -172.6834 2266.631
-130.0133 -89.08137 1874.429
-66.47871 -188.8432 2052.929
276.4967 -153.1581 2493.09
236.0653 -223.485 2981.781
-947.8917 -434.2769 4673.72
-289.9664 1387.838 15150.62
-388.5623 265.9677 5676.804
1141.356 -1742.409 10776.29
986.399 -1043.1 8867.467
0.2835398 70.49162 2068.664
771.8032 -397.5616 2786.986
117.5902 -940.4208 6197.127
-303.0266 75.21716 2613.864
-12.63003 74.07212 2041.16
-23.90828 77.43407 1937.834
37.6334 79.30214 2122.065
33.17473 52.29099 2096.342
-23.45283 91.32899 1929.634
-735.8031 -189.1613 3717.03
-835.6208 851.503 4310.657
-456.6476 132.6953 3074.309
55.49919 64.87202 2170.279
63.47317 40.0463 2127.593
58.71698 42.1906 2104.223
47.42373 47.97865 2103.067
-19.3754 71.31419 2030.059
-37.81725 86.65918 2035.761
-18.33716 82.44196 2013.242
60.30972 75.60791 2155.803
5.613069 75.50732 1999.684
115.5957 28.53457 2323.912
-21.20943 75.46696 1965.241
-12.85973 73.9478 2023.066
-13.58099 81.13321 2016.828
19.01927 64.84582 2034.602
-13.8988 59.72663 1993.274
-20.61482 70.34022 1962.97
-6.267696 89.73808 2063.08
-16.59592 96.04176 2003.741
-10.12715 84.02655 2049.457
-13.29029 82.60506 2053.114
5.782187 76.81242 1985.509
-12.9047 70.10269 2064.256
15.06613 68.25636 1993.135
-13.30705 90.56184 1995.508
-20.33424 85.04295 1955.211
14.31985 87.30588 2037.643
-3.094774 73.12054 2039.693
-21.32727 90.87526 1961.082
-21.33542 90.93117 1961.25
3.280896 59.72061 2029.439
42.7822 59.75317 2115.124
3.573212 76.95057 1979.149
17.22356 69.35846 2018.054
-5.803499 90.35632 2068.138
236.039 141.5353 1676.334
411.9521 225.3924 2702.236
772.9241 273.5029 3070.132
779.2818 65.65126 3737.986
139.6569 -1253.41 6393.595
478.4305 64.46801 2791.542
500.1627 65.63746 2872.069
415.9572 221.9841 2643.648
488.3571 -171.1575 2915.552
572.5401 20.38484 2553.236
6006.366 1681.63 305551.2
654.059 -315.4063 2685.866
-678.3408 288.3156 3229.415
-666.2745 1460.512 17329.47
974.9713 595.6075 6941.502
880.181 -802.1219 5796.593
1007.688 618.1184 7163.086
1051.787 -554.2824 5150.894
861.6439 -657.1377 5819.838
-1277.138 -1085.33 29880.37
7.273426 63.86201 1978.205
-19.21796 98.90852 1971.819
31.63797 124.5909 1995.82
70.88055 199.4658 2229.581
76.7613 106.3234 2127.29
35.983 129.4055 2009.185
-2.74861 67.24097 2052.724
14.21711 72.4716 2065.919
-18.40507 71.87064 1986.562
-10.78633 84.88745 2050.048
-10.81763 84.78757 2048.463
15.83186 83.31243 2072.68
26.35967 64.68346 2047.245
5.639596 92.05506 1988.85
8.561493 97.56087 2003.821
26.62518 51.54785 2060.122
33.08968 54.92092 2045.333
21.60996 58.26777 2055.065
29.88493 59.32684 2067.206
27.23556 61.62136 2062.313
-0.6094133 52.66067 2097.358
-8.511065 55.62137 2128.372
23.22646 66.8415 2080.469
20.936 94.75766 2023.682
10.28314 97.35455 2008.241
30.29612 56.96356 2053.588
25.53853 61.58663 2052.887
-13.67407 61.7806 2172.664
10.81981 53.3954 2058.015
-4.0526 48.33356 2103.425
22.42872 54.95171 2106.291
-202.9513 176.5938 2405.979
79.37722 122.2416 2194.155
341.0091 476.2523 2995.777
-10.1192 109.8576 2100.485
-12.26782 55.30579 2061.735
-436.2589 -218.6072 3124.83
-16.02632 107.8364 2017.977
40.93086 96.59825 2029.178
49.07927 149.1655 2125.104
329.7744 -0.9236426 3357.68
208.0575 -58.49844 2338.112
77.87141 -66.71033 2235.053
177.8931 -43.77623 2305.415
139.8364 -82.80099 2274.463
394.599 -174.0663 2510.285
135.8539 -42.0007 2298.689
-41.88394 140.4414 2146.477
509.9493 561.364 4437.746
-63.85389 47.26936 1890.888
-71.37749 139.509 1955.778
102.3736 -71.50026 2271.753
-62.9961 122.1094 1876.993
327.7793 -140.8844 3702.553
297.853 68.87914 3104.35
198.3661 -43.76662 2613.003
-60.07782 121.704 1868.03
-111.3098 -3.81203 2753.729
-157.1612 43.60896 2044.355
252.6341 279.7242 2996.684
269.124 -552.2557 3512.79
491.0311 -1195.657 7365.8
1397.453 -1855.888 14768.84
1639.116 -813.7097 9211.291
504.3208 -18.37444 3000.313
211.4171 134.6119 1626.738
551.7866 301.0912 4677.113
521.3121 -152.4528 3035.318
628.9506 -422.8394 4348.67
1488.41 -1498.82 10990.1
-644.6418 -799.8214 8360.599
735.938 -1073.151 10439.94
638.7794 -988.6727 9212.788
1000.178 -775.2308 30280.48
1550.843 -210.2939 8017.193
1006.496 -1045.062 6050.723
-2811.155 -1305.938 12172.75
-478.4802 -822.0696 6435.003
776.8086 -413.677 2795.706
0.8086115 -1064.876 6625.757
36.41462 103.7044 2344.901
114.5764 139.1651 2368.238
-384.7805 -137.0123 2910.519
-311.4284 253.3922 2621.565
-27.31364 68.70911 2722.444
430.176 -946.0552 6222.234
862.9442 -674.3816 11592.43
1000.215 241.8161 3435.293
1010.562 240.4182 3470.266
735.0717 -672.338 6285.747
1513.293 613.6404 10581.36
-948.8196 713.9469 4002.075
-434.5008 266.0811 2231.098
177.9245 12.48481 2301.203
-120.3455 56.10649 1798.234
260.3261 -193.5797 2302.618
246.6422 -179.0078 3748.383
262.7465 -243.538 2973.22
-91.69437 -249.2023 2578.51
-182.5081 140.3471 1930.084
-163.138 -78.46184 1775.169
-179.0707 175.0048 1914.766
-140.1916 18.74132 2427.561
-151.3979 180.606 1955.787
361.3901 -132.3978 3421.185
119.2532 -232.7345 3165.903
-114.991 11.48517 2060.302
293.1382 -166.8888 2309.777
3544.045 3711.592 14376.63
-654.371 352.6099 3080.549
1295.059 -23.21018 8573.882
-713.1636 -3788.233 43097.62
17.1878 -878.1901 8286.133
-524.0419 431.3457 3512.924
-393.0195 -32.09944 3018.955
164.9163 -39.53839 2789.825
-248.0594 65.06388 2444.65
213.4577 -77.74968 2872.866
226.0972 394.381 2732.144
218.6787 -81.38033 2900.727
222.2226 -32.92601 3207.244
344.5504 581.6317 3163.616
-60.33886 33.26798 2093.719
229.3905 397.6987 2744.774
-20.08853 28.96276 2233.592
-338.8715 201.6021 2681.339
-311.2772 395.2558 2726.69
9.397296 39.7317 2328.207
-362.5008 83.36929 2771.897
203.5979 38.15465 2778.155
-45.36502 97.48878 1927.804
-343.5869 265.507 2658.904
-409.5989 -50.55109 2907.141
-45.55614 97.46834 1928.833
30.03184 60.2795 1977.883
442.4833 -270.3294 2789.635
255.1107 -452.9837 2978.107
-86.29796 12.40541 2388.757
-12.56994 185.3038 2839.786
-36.61622 -67.83105 2303.253
223.4102 -119.0572 2266.959
108.6179 -105.8066 2358.743
157.208 -58.00064 2384.511
165.8035 -60.91989 2951.622
145.9208 -43.23662 2912.437
250.1548 -103.7218 3254.918
491.6031 -47.66425 4741
-62.66401 76.50073 1733.74
47.19455 -100.4327 2903.215
289.7218 212.74 3088.648
226.0778 -133.1403 2365.154
246.5246 -80.69736 2452.897
287.4836 164.9707 2917.991
371.8611 -5.392344 3571.387
-112.2042 62.00579 2379.466
-140.305 177.1982 1926.928
-147.0756 183.0977 1951.223
-38.62304 75.06903 1608.642
2174.861 1731.284 13357.24
1350.435 -648.0721 4703.665
1835.82 2135.152 13484.19
834.0104 -717.218 4342.884
870.2933 -621.3572 4937.413
1016.994 -415.2104 4982.1
2048.559 805.8059 14001.44
1579.123 568.5451 7350.902
-604.8885 283.4031 2936.398
755.3513 -814.595 5561.938
1081.484 -509.6045 3980.149
-564.2041 431.8716 2741.546
-645.8309 169.5696 2992.364
-306.2023 -5.775418 2627.493
-409.2734 -37.3886 2887.011
-243.6864 371.834 2698.29
-255.9367 -50.46955 2595.059
111.666 58.99185 2481.181
47.61141 56.04945 2133.885
84.18076 5.507519 2220.996
-69.98425 126.3292 2121.508
-194.8945 122.5491 2508.141
-70.36621 126.3533 2122.91
55.33108 168.4192 2100.956
96.98164 49.00159 2190.313
-42.81472 -31.60593 2357.52
49.68377 144.5884 2034.784
35.63551 54.33937 2035.623
-367.9983 249.1722 2718.266
-262.3403 127.0419 2613.903
-276.5173 191.7017 2628.102
-205.6177 142.7105 2550.07
61.28483 81.83424 2148.641
-168.313 25.84864 1925.279
282.6046 22.02087 2258.145
63.47204 -177.3262 2839.768
295.8336 20.8131 2298.644
191.2328 -144.5129 2343.435
-326.4689 -13.70902 2839.76
-12.60315 136.7908 2336.962
-4.823743 103.0239 2270.192
-371.4232 -136.4222 2916.848
-386.4762 -209.9665 2960.865
153.3636 17.2923 2407.891
-346.3123 8.192175 2816.367
-283.2852 205.4594 2659.277
-416.8087 -162.7934 2909.839
-383.2318 -47.88488 2845.721
-53.06945 229.3059 2749.287
-224.7308 255.588 2602.984
-290.6854 195.8889 2667.644
-347.6736 124.6655 2723.008
-382.9608 -181.5388 2943.843
-380.1825 -12.70619 2820.902
284.6085 -71.15377 2940.699
-82.77383 1.517943 2008.551
382.0037 -53.39048 3660.35
314.9593 329.9426 3274.953
-18.51991 -96.70818 3621.688
707.3661 274.5912 8404.343
465.1518 181.143 4618.867
-263.328 155.0415 2633.507
125.3397 63.62223 2579.015
-79.5565 -102.2201 2942.846
-163.817 -157.0515 2309.627
119.2552 -144.9615 2087.016
-122.1959 174.5705 2104.956
191.6775 152.8193 1995.153
188.628 -95.59225 1969.872
214.8139 -117.9163 2420.313
160.5337 -112.9384 2105.09
149.4414 -123.8071 2248.537
-84.05414 -216.4101 2480.931
402.0934 -237.5356 4426.19
140.9705 201.3641 2266.275
137.4592 200.2712 2252.024
220.8644 -89.9325 2089.973
273.8102 377.5643 2292.269
210.3779 69.05022 2005.545
225.4026 -63.91634 2094.36
227.3989 -71.33833 2153.043
240.3441 390.1526 2991.556
313.9239 -89.80094 3859.173
-17.12913 162.2392 2557.955
171.8936 159.5128 2509.677
-136.428 -153.9223 2237.45
-152.0459 147.9508 2150.923
248.848 -75.58317 2464.209
-154.1091 155.1616 1690.403
214.1439 -46.20105 2057.917
134.759 -158.4731 2210.54
-170.5895 25.48899 1935.377
-415.2683 -243.53 3182.742
-381.0396 11.52312 2856.685
-151.8492 -19.27358 2453.206
431.718 -540.2693 5368.897
-61.37426 -739.7775 6854.903
546.6183 31.14072 2480.325
307.0223 -376.2766 4070.636
-612.1694 -445.1409 4426.715
-567.4753 -545.0192 3632.744
389.8793 182.4834 2159.369
482.1605 -575.675 3875.422
546.2504 -610.4503 3572.098
565.1146 -656.6111 3750.362
483.0322 207.9308 2376.735
-606.5276 507.1867 3545.693
-118.4474 -884.7747 4785.214
-197.1771 -372.7127 5164.256
-360.4173 449.0316 4636.153
-1646.255 10811.21 118190.6
-406.7572 -218.3322 5245.434
193.836 -260.3677 2318.811
223.2503 -91.32866 2096.134
123.1206 -125.9927 2457.54
-77.58138 228.1155 2878.879
-157.5363 224.906 2389.542
-83.54398 245.8315 3038.427
-185.3935 250.5923 2276.921
434.456 -465.0323 12171.39
-59.26729 176.2919 2430.685
148.4954 -126.9181 2245.408
154.9049 -152.1141 2416.488
-270.354 -146.0548 2260.948
221.9521 -84.30988 2392.872
267.4025 10.96335 3017.549
139.0918 -144.5294 2521.032
155.9821 -57.01322 2359.614
144.1288 -76.81272 2166.34
-156.4164 45.77347 2001.763
-173.2042 236.3009 2212.673
143.2771 -76.11327 2163.908
-145.6801 206.9642 2315.795
-0.8336492 66.11928 2022.467
-12.24478 55.57575 2072.948
33.08919 76.75278 2067.217
-4.763256 77.20358 2083.95
-143.1851 47.19192 1940.325
149.1544 -285.4856 2446.737
53.06762 -220.4672 2266.88
-166.1222 158.9527 2258.736
167.8449 -215.7403 2727.155
241.4709 -262.8969 2875.306
715.4791 -346.3402 2768.269
170.7493 -292.4951 2719.888
-170.7578 25.15888 1933.226
493.1193 -234.6077 2433.386
-193.7221 148.0002 2009.003
145.6051 71.35686 2336.741
-138.873 47.97005 1906.992
-157.5415 26.19914 1820.485
-124.0675 -163.4798 2162.008
-171.6452 168.1792 1884.255
-190.2061 146.1097 1992.591
-167.8644 -49.5904 1927.625
2160.979 2843.231 13552.35
1130.989 -512.051 6632.358
-362.6459 305.7612 2371.666
-602.1256 340.7395 2855.049
28.63683 78.4857 7310.816
749.9006 -271.4798 5355.777
14229.11 -13821.32 52390.39
73.22347 -283.979 2444.691
382.1998 -328.2448 3671.866
580.1456 -399.2328 4007.304
251.3375 -325.9277 2574.617
565.4576 -99.68166 2559.132
-41.1704 -98.84509 1955.537
563.5652 701.0146 4265.096
374.3157 129.4501 3994.969
2738.37 1105.056 10741.53
1229.991 -356.7136 8620.807
11.96074 90.24051 2000.861
-17.58479 84.41502 1981.312
21.71008 89.61377 2067.447
7.777157 67.16582 2069.66
3.117985 81.20322 2003.907
11.48598 68.14665 2031.552
10.11295 67.38828 2025.39
5.499868 93.94817 1994.701
5.427623 95.4287 1994.471
413.2302 -460.6509 3886.498
142.2711 -367.0515 2746.976
169.5087 -585.6088 3529.141
-187.4359 216.9994 2199.253
490.5378 4.786378 3253.895
124.4568 -245.7465 3236.088
295.1237 -439.178 3480.246
85.5173 -271.7065 2696.761
-82.95096 -145.7197 2523.886
-183.5237 238.8389 2266.134
20.62446 -527.6431 3284.596
231.2341 363.6328 2316.316
143.1303 312.4414 2194.382
5008.498 -131.6251 40006.93
424.2748 -562.4469 3733.558
100.3482 -1004.137 15064.33
-33.88681 98.40096 1965.232
18.42611 45.95955 2100.591
-77.28911 99.0182 2110.199
-360.5736 -92.45262 2749.428
89.95353 29.19454 2308.187
48.60732 49.49417 2112.104
-23.31873 90.70441 2007.097
-248.632 160.2479 2458.877
-65.32825 107.8063 2089.655
-102.8672 115.6503 2183.545
-16.75194 86.60752 1910.298
-25.48432 75.48828 1936.244
67.92772 52.63666 2114.67
-17.44422 89.47076 1909.532
-22.39581 91.41824 1925.729
40.82328 45.35381 2086.967
4.250764 37.7867 2067.556
-15.52131 49.70937 2034.688
-16.14898 48.60122 2035.94
43.77533 76.71665 2144.111
-107.8168 103.5345 1850.896
203.3749 -61.28285 2938.317
159.761 219.9202 2602.833
298.793 219.4816 3139.385
211.2665 -95.91477 2327.036
271.0002 -66.33826 2879.808
322.9695 -41.98489 3110.536
-24.99577 -61.43518 2397.897
48.8519 -49.51401 3390.048
-71.37203 27.90634 2201.18
218.1904 76.12778 2797.107
-54.70218 169.8088 2430.042
105.9927 -9.376778 2501.922
-213.7805 294.6982 2413.611
-355.0383 397.3596 2736.709
-375.2571 417.1421 2791.631
149.6078 -35.25431 2239.29
-359.1423 90.86286 2768.988
-393.2893 92.64066 2789.696
-44.11722 124.2726 1996.441
-1611.266 234.2841 9703.836
-585.8414 -82.1952 4349.812
133.0443 -30.45615 2745.985
9.475085 40.93389 3046.41
43.81504 106.5578 2454.624
337.2655 382.7237 3126.713
-51.43452 -15.06492 2264.815
304.2887 418.1297 2891.116
160.8397 -45.17429 2917.21
-60.39522 44.51216 2108.868
272.6913 446.7777 2906.834
270.2169 445.8963 2898.117
268.9268 383.173 2756.694
195.923 -67.61806 2377.961
237.2349 7.883483 3090.397
204.9823 -9.494208 2457.512
181.58 -22.13552 2531.728
-45.15924 107.2393 2195.624
-32.45601 -18.92823 2415.945
142.1079 -3.866494 2140.298
6.801688 -34.84612 2449.237
102.8101 -24.49694 3300.206
-459.7622 359.4523 2843.229
-285.687 152.3166 2633.475
172.7477 -14.66545 2519.997
144.6721 -17.93551 2508.993
-21.23991 53.89237 2469.593
-252.7251 112.2057 2581.273
-58.85428 -1.250433 2148.542
-21.90202 -46.95509 2368
274.3613 81.3688 3098.558
247.4506 155.1302 2752.327
-59.85499 117.9158 1887.909
268.9988 -41.31381 2815.441
379.7401 -180.1441 3828.441
225.6002 402.3211 2661.36
83.71208 -61.39422 2843.678
259.1507 292.6758 2999.078
-16.96261 92.2187 1981.702
13.82501 101.0455 2020.657
-16.85299 50.90816 2311.676
-21.67655 79.18125 2015.788
7.168974 82.70911 2025.335
40.04309 52.18606 2084.663
-1.425986 88.63474 1968.691
30.55006 58.11168 2058.399
23.23434 64.21272 2060.337
-12.04315 59.66372 2066.701
39.18673 54.47407 2092.128
0.9510905 81.49297 1995.044
10.30007 60.02574 2107.171
-13.6019 62.66307 2135.83
-18.32077 82.06059 2092.013
-21.15893 77.11098 2000.513
-9.760524 81.49589 1989.607
18.84857 86.13274 2024.852
27.56042 64.7314 2063.928
7.566971 65.61822 2047.991
-5.447842 78.85639 1953.566
-17.37047 71.49684 1983.552
67.89252 157.3085 2189.204
30.2296 72.29269 2103.736
46.43417 142.967 2116.667
-13.43242 119.5525 2150.23
81.49875 177.8628 2256.585
82.80473 187.8394 1789.85
216.2394 -147.0959 2577.596
206.2858 -164.631 2537.813
170.4218 -256.637 2890.45
276.496 172.5443 2180.22
-49.8626 -175.6966 2906.947
135.4943 -223.1025 3174.16
74.74209 40.69393 2129.305
58.39417 95.28645 2134.399
-44.88633 99.03387 2209.094
56.60151 110.9932 2124.186
-1413.189 -285.6315 6079.609
20.81882 72.88539 2058.089
-235.628 88.53845 2844.338
-304.2044 23.62997 3006.936
-221.1872 137.8508 2785.22
12.62867 67.15799 2032.333
-427.2415 478.8918 3107.426
135.1633 4.428873 2597.61
33.77055 9.363805 2327.724
-2.441112 70.7429 2058.897
-290.7364 330.8654 2864.711
-13552.78 13867.27 42377.32
-276.5288 240.3839 2627.148
-57.04223 0.4973244 2128.8
115.1749 -23.83269 2220.973
-373.467 54.19683 2789.521
-57.38838 145.6784 2106.017
-1063.335 -442.9311 5482.662
-59.33184 54.84916 1947.022
-334.8636 291.6938 2696.054
124.7373 58.48139 2450.213
141.157 -28.05231 2219.939
-330.7234 200.315 2691.299
-17.16412 -79.67958 3049.747
50.74517 -14.95652 2489.255
-11.34758 94.60896 2103.294
109.6037 -20.32026 2207.948
-82.942 156.0887 2040.773
201.4519 1.640642 2619.122
-17.0396 118.373 2137.266
381.9839 -71.11916 3773.215
-15.81535 148.6647 2430.643
166.2778 -64.87379 2427.753
-103.158 -119.9776 2758.77
315.5401 227.9672 3261.931
135.5714 -85.19732 2284.768
-44.99878 147.0872 2197.197
-13.22467 90.95872 1998.714
4.474285 71.14906 1963.581
-1.190459 82.60803 1979.356
7.47648 82.36134 2030.662
151.4778 -23.88505 2420.455
127.345 -51.77171 2688.4
5.5604 78.86014 2002.745
-5.820829 72.62796 1959.982
8.774536 68.48268 2001.174
-17.63715 92.09484 1979.85
1.380669 86.10759 1969.963
-25.88295 77.13194 1957.286
-13.15249 71.96259 2027.729
-17.59176 91.87246 1978.886
-11.08241 77.01261 1937.336
-3.572282 77.49628 1969.208
0.4644935 62.79236 2008.356
14.76469 60.30947 2018.996
-20.97094 89.77724 1958.553
-1.415522 82.55634 2001.227
-0.9854776 77.07824 1977.697
-6.52988 76.69615 1956.425
-11.83209 82.39596 2027.488
-6.922338 80.77069 1958.19
-0.980987 80.58257 1992.741
-24.45548 78.22554 1948.827
-20.87152 77.10445 1939.571
38.15499 95.85607 2127.828
-281.5102 311.3488 2864.773
-0.6956521 71.16151 2057.224
12.06558 88.08819 2071.576
3.510196 97.32345 1985.598
1.212368 81.40427 1962.021
17.29507 61.016 2039.55
36.54258 74.4438 2087.72
23.33702 60.58554 2060.691
21.15624 64.13579 2037.151
16.16043 50.9108 2081.604
33.35292 53.16395 2098.907
12.40672 48.42955 2074.052
17.64858 85.43777 2017.18
18.49832 78.5188 2019.794
-11.56226 64.31119 2045.299
29.47499 69.07859 2110.147
36.85368 59.34651 2108.039
39.65856 74.70053 2127.109
30.04764 68.80099 2112.53
28.66914 59.2592 2092.447
44.6356 42.23024 2095.971
19.80672 90.25026 2118.405
49.45933 140.4632 2048.435
48.9483 71.24241 2130.79
49.34739 147.1981 2120.08
37.69956 68.07962 2137.219
-17.53852 121.9353 2116.569
29.8226 100.15 2262.251
-6.495308 60.75002 2471.784
167.3961 56.08189 2820.781
-255.7696 194.7107 2578.328
42.10448 63.47381 2078.26
-236.0742 38.93198 2540.536
79.23976 35.19421 2148.48
-297.4028 242.004 2693.142
56.0506 65.06866 2122.091
-210.9679 47.77726 2532.024
79.31754 73.23696 2229.386
96.93656 6.78006 2116.895
13.77311 84.59258 2062.826
41.35533 73.28657 2075.794
-343.1382 250.4753 2978.967
30.94293 75.6813 2068.104
-7.485956 96.15 2045.458
-24.09056 78.06196 2063.26
33.36551 86.64947 2067.064
-318.9401 199.7472 3012.733
-9.317065 94.33567 2033.619
-4.76867 90.28403 2062.754
-97.64223 124.4562 2228.232
-98.44998 124.8649 2230.832
23.46034 82.31959 2071.544
52.30111 70.94196 2103.921
-7.63505 96.28142 2046.681
49.25898 71.57253 2096.729
33.30961 75.33517 2059.691
42.52571 73.70291 2081.139
25.8678 77.03884 2042.089
8.570288 87.92919 2055.463
-10.97862 73.46719 2011.191
26.64521 72.64462 2058.673
-7.416615 93.19244 2031.17
-9.638394 87.05155 2042.312
-288.6926 137.7952 2723.965
42.96307 58.36191 2057.37
-162.0866 102.9111 2614.074
-195.7132 89.30512 2585.332
-9.794816 88.56145 2051.204
-9.899045 88.23867 2052.281
4.867214 97.13314 1995.424
7.866138 76.74187 2093.813
32.26657 78.49387 2071.298
-64.52804 39.85801 1860.873
178.8495 -39.66108 3140.311
-70.23216 130.5161 1882.786
-69.15188 129.1042 1879.275
62.47407 -61.0821 2306.414
-26.80137 -0.5311147 3128.49
-65.96587 38.91402 1868.305
154.9896 -42.28393 2186.229
130.7488 -102.1073 2427.271
171.8167 -99.78102 3365.532
-16.69657 -166.4097 4392.18
136.7765 -197.1209 2624.397
224.3398 -58.00656 3222.683
222.6634 -105.085 2365.841
459.5949 9.958204 4410.14
246.39 -80.88041 2449.51
296.3466 141.4847 3517.545
355.4236 81.24947 3523.889
1.506617 36.05561 3976.005
225.323 -38.92882 2335.583
208.3713 -64.133 2390.396
336.1403 491.1877 3556.406
318.3277 -42.47594 3296.594
-58.2458 80.27625 1894.847
-560.3805 119.0444 3636.689
145.5163 -13.52326 2440.525
207.4157 -10.54311 3121.432
170.1985 8.378489 2350.834
214.7193 -73.10283 2352.673
-101.9237 64.43467 2704.071
214.5467 132.0634 3861.864
-69.16234 201.3532 2680.026
-127.6197 3.478279 2199.265
-108.3899 263.3014 2653.751
200.1999 -88.85432 2295.748
178.3148 -126.9709 2284.719
-161.1648 193.9017 1997.263
-103.3919 -0.8336942 2605.586
232.9013 -61.30599 2744.871
266.6805 -90.43218 3029.433
304.962 57.29343 3192.338
197.1949 -180.3566 2827.857
233.599 -79.83586 2375.455
192.9332 -82.83204 2550.37
-26.37339 -117.9919 2782.924
233.5188 10.6422 2313.268
1019.538 -402.1401 6394.539
-183.904 147.6383 1940.319
-108.1907 25.47672 2683.257
150.1257 -129.2899 2456.695
435.9128 177.0436 4414.335
-131.3058 1.593288 2965.7
-30.32862 30.31086 2781.853
137.8046 -117.8465 2587.678
90.03981 -155.9893 2564.867
145.1674 -123.7261 2428.027
218.479 -68.05623 2448.362
233.3128 -88.79536 2514.594
-121.7847 -158.6857 2154.304
229.5295 -52.61976 2098.648
720.9106 55.43943 6868.551
153.4602 -140.954 2721.186
-90.81695 -88.23342 2563.932
-50.60327 -169.3364 2777.288
249.8693 -91.55862 2504.31
-2.972903 99.37403 2349.248
237.5352 -55.81912 2121.396
-119.9192 17.85517 2876.97
213.3902 68.49002 2012.753
262.3133 204.1408 3050.273
101.5448 300.8291 2051.902
89.49933 -249.5882 2779.046
186.6854 -106.1765 2097.613
172.0822 -117.7284 2124.232
117.7402 66.10513 2153.448
312.4691 -46.26992 2856.721
525.3961 -206.2791 5528.326
248.254 -32.599 2159.025
254.5329 -86.84529 2229.329
27.24603 62.36762 2047.996
22.05418 59.12012 2028.031
25.95321 57.81689 2019.725
64.47424 151.9176 2194.254
-10.3451 83.59069 2037.63
-17.18595 70.30695 1977.47
-11.99427 70.0414 2033.563
32.67682 62.37566 2028.435
-13.37878 57.52655 2034.818
-18.84356 88.68578 1968.397
-12.02033 69.1378 2047.346
32.35973 76.29202 2063.17
-13.36507 57.6282 2033.83
-17.71575 86.40195 1959.766
-19.6449 89.41645 1968.216
-18.81752 88.63161 1968.26
-12.07127 69.80444 2038.082
-16.62032 71.13276 1973.613
-12.03024 70.21379 2031.763
-277.0845 420.8806 2805.718
-131.0035 82.21139 2354.927
-336.5687 574.5915 3295.233
-16.92131 74.4898 1989.139
20.17734 81.56256 2058.687
70.95452 90.12344 2200.049
11.65803 74.82966 2009.855
29.02149 63.76097 2062.467
10.40031 56.4799 2139.425
29.361 70.00752 2064.088
-0.2769836 70.25094 2000.173
44.81325 69.18929 2121.838
23.55601 61.01801 2015.54
5.28258 62.91246 2023.799
-0.3784755 64.53601 2031.815
-10.53263 99.8791 2050.043
290.0265 -90.92405 3279.538
218.1111 68.97759 2027.453
201.7848 38.96412 2029.459
200.8546 38.57845 2026.913
197.9616 150.439 2017.883
392.6494 653.8593 3518.068
-108.8507 -17.04012 2741.609
257.4828 -88.57349 2239.653
258.181 170.2198 2139.298
628.0542 -254.1996 6177.751
252.3815 -85.72912 2225.319
-135.9629 30.51669 2254.996
234.2654 269.0987 2887.978
196.1875 -270.6719 3492.499
211.9109 37.44055 2060.167
130.509 -142.1213 2556.912
362.0374 -55.29886 3568.73
-108.4533 213.5288 2657.019
147.5042 -165.9979 2843.007
215.7741 68.18582 2018.527
-668.6882 486.7827 4511.304
-67.87209 40.48867 2182.95
166.019 -149.7788 5975.663
-84.83136 145.4149 3054.394
-252.9951 226.9277 2558.251
75.16547 58.41587 2207.065
-269.8872 45.42752 3458.9
-3.650268 93.34541 1864.746
94.12397 -4.853328 2133.923
94.47389 38.8459 2122.031
-216.2707 275.0173 2556.25
-285.4215 -10.56609 2537.918
-218.0523 1.084058 2460.365
93.72914 39.33682 2119.907
-240.5043 256.9017 2680.407
-169.2016 68.81982 2429.988
-111.9904 225.2102 2414.011
-134.5333 195.2726 2435.993
-203.9593 48.39315 2446.608
84.28412 71.5232 2255.393
16.66896 53.36988 2009.651
71.27435 26.466 2150.404
-4.14886 77.77234 1889.975
-302.6045 323.6423 2632.097
48.23746 30.49305 2191.718
-282.1647 182.2119 2560.902
-102.2769 210.6507 2357.634
188.1111 -76.98181 2903.537
494.8733 22.92727 5268.592
114.2917 -111.6989 2379.345
182.3269 -77.8459 3066.247
-52.798 223.6037 2789.951
-102.5685 14.09136 1834.569
264.013 -25.34394 2656.127
290.3196 -30.77707 2885.392
200.3996 -94.94291 2374.932
16.29594 66.23513 2046.53
21.36539 62.31834 2049.192
-13.57546 80.54671 2021.604
11.75429 72.66318 2053.205
21.15691 73.7487 2050.138
8.714882 86.74864 2051.323
11.30577 97.60292 2008.291
24.11027 77.06807 2040.695
11.81254 68.16905 2030.214
-10.75168 96.01523 2030.72
26.81623 65.20982 2053.471
24.09346 96.37172 2032.122
-10.64799 96.82401 2034.894
-10.72781 95.66048 2029.176
3.728342 67.18914 2049.066
-17.8607 72.37176 1982.819
-8.320677 66.55716 2042.988
18.01367 60.92928 2034.164
-17.46382 75.61459 1983.485
-17.44294 83.41673 1982.167
21.05967 71.37945 2050.484
23.03903 71.40743 2036.276
-8.649697 78.89075 2024.976
26.13501 61.37238 2034.978
-15.83829 92.0583 1987.681
-17.53139 87.20669 1978.782
-15.89348 92.14527 1988.092
-16.81057 91.66976 1979.136
36.82011 72.65565 2110.632
4.105869 78.13613 2081.812
-0.5752411 57.85682 2071.48
32.47359 59.70871 2108.884
42.79566 131.9014 2048.558
39.16464 45.62294 2111.545
74.70704 39.78686 2129.819
39.95768 45.44745 2096.203
54.0371 94.02172 2120.396
43.82032 46.89879 2116.285
51.61691 93.66039 2114.285
-53.26971 85.87193 2081.848
35.97567 54.41903 2104.483
83.97233 33.33303 2170.083
-23.3468 108.2287 1975.75
45.71377 45.5037 2110.181
56.70531 42.84431 2097.61
58.39731 111.9617 2130.128
-4.604161 53.07103 2060.524
53.09129 35.46554 2104.301
44.06209 48.66316 2112.069
-67.46194 127.4916 1868.677
-67.48957 38.30046 1873.237
141.7738 -113.2171 2340.027
-53.0567 -7.612664 2068.073
244.494 -118.501 3245.339
-56.87888 -16.75566 2113.651
-25.18128 54.80068 2254.553
-66.58262 105.1566 1873.021
-65.32719 39.1465 1865.568
-50.04831 0.7185737 2027.514
-143.9568 29.47714 2382.094
-93.3913 14.32883 2146.697
-113.8772 13.76728 2215.561
1.038947 64.37949 2080.823
