# .PCD v.7 - Point Cloud Data file format
VERSION .7
FIELDS x y z
SIZE 4 4 4
TYPE F F F
COUNT 1 1 1
WIDTH 1496
HEIGHT 1
VIEWPOINT 0 0 0 1 0 0 0
POINTS 1496
DATA ascii
-0.5481439 5.360569 21.2128
1.034289 5.909746 19.66586
-2.432581 6.13589 23.68843
0.7248904 4.725845 22.06393
-2.743649 3.659062 15.14309
2.843861 5.555566 20.03123
-5.178511 4.405099 18.71614
-0.6178136 4.691147 15.9391
18.26057 11.34481 35.5467
0.4044219 5.764797 20.23082
10.16345 9.259518 36.1164
0.7443586 5.639954 24.88585
-0.1751853 4.23634 13.30243
-0.2057005 5.73084 25.63291
17.67498 15.40798 42.58885
-0.3032509 6.045214 27.09284
-2.808825 5.792899 26.36691
0.7201692 4.825229 22.55604
-2.093299 4.470797 16.30875
-1.7611 4.925506 15.26805
0.9716788 12.26499 39.34468
0.2237371 2.479951 9.258843
-2.598009 7.688265 29.07291
0.07037681 6.069613 20.00102
-1.522452 5.610556 21.3345
-2.695257 6.24075 23.19252
407.2496 -95.83062 935.0855
20.25066 8.409032 46.96619
-7.400029 -9.456578 61.53958
-1.631711 2.026285 69.29461
16.99393 7.635842 41.07909
-24.31955 -21.49218 67.08498
21.4285 -0.3826993 85.69531
-10.94318 -8.335199 70.96985
5.471867 -2.180183 79.75916
6.849169 -6.098213 91.11559
10.86163 -2.30337 79.84676
15.77399 -8.03042 90.25848
41.07382 4.455877 93.84238
40.16654 0.3566399 93.49332
-18.50669 -1.72016 70.4482
7.822012 4.930761 78.61778
0.0009005964 3.882722 85.03508
0.6878206 0.8731856 76.34673
19.62302 1.002076 2.204501
-2.228887 7.139787 22.50471
-3.000854 6.327827 23.07231
-1.528867 6.646462 21.31292
-20.35174 -6.322105 50.38866
9.121051 7.606333 30.14873
11.06285 7.422398 33.50117
10.44789 0.6517953 81.26711
11.95767 8.999581 55.94187
-3.40912 5.480508 24.64217
4.329989 5.526562 44.48911
2.933705 5.233414 19.63414
1.00915 5.841142 26.98752
2.844553 5.565585 19.96493
26.08584 -0.7243451 81.40288
16.77407 -3.381095 69.06529
-19.00827 -16.40377 63.41119
18.16292 -0.01414031 87.99213
13.84504 -7.079417 79.16297
-22.71995 -7.038764 56.20769
-17.98537 -6.419075 38.95364
-9.92254 8.312812 27.72919
39.8751 4.301933 91.23659
-4.166392 5.029109 29.11014
-11.28009 -5.089017 72.8111
-19.96976 -16.05684 51.53262
9.407323 7.859017 31.14748
-21.1566 4.337636 49.8038
-37.40677 1.506049 81.09707
-2.88338 12.48924 76.19542
-15.36695 -7.912635 38.11806
-0.2929646 6.51829 19.99405
-0.2197369 3.763695 81.65982
8.316395 0.02471966 97.07495
7.559793 6.946051 41.81282
10.50723 6.2475 51.24992
-24.29596 -1.877567 68.46028
5.306912 6.745975 54.3539
-0.04974185 9.446577 88.85932
25.80881 5.913837 81.60294
25.47658 4.13782 93.3783
25.47517 0.9281058 94.32658
9.654907 6.856582 80.07983
10.59976 0.358669 83.3019
2.918193 5.194782 20.18075
6.597865 7.648125 27.95949
2.955217 5.274685 19.7525
-17.02896 7.502155 48.91314
-1.341999 8.707475 48.3503
-6.489806 7.657145 44.5197
-12.59219 -1.259081 68.83987
7.144101 7.735531 25.29894
11.06391 8.20843 31.93334
-4.166636 7.079488 20.96806
-27.03201 -22.01011 66.69456
-1.824688 11.48511 69.71245
-3.591502 7.863244 76.12244
1.040347 6.185495 28.64616
-16.43787 4.243587 58.00384
-22.37415 4.570674 52.71561
-24.32104 2.492634 63.23285
-23.61535 -12.14457 58.44173
-24.74706 -15.65615 59.84635
-12.90335 9.269684 36.81746
24.86012 4.143612 91.10605
26.36803 0.885392 97.59106
-12.1639 10.16228 51.32922
-6.479908 -2.394593 81.14727
2.554267 6.413987 20.84021
6.28265 8.241211 29.41593
4.826537 5.984563 49.04476
1.248723 9.076809 89.87913
7.476297 6.879782 41.35786
16.18274 5.229969 75.7616
9.69047 6.819466 80.37352
2.904381 5.151399 20.07644
7.875077 4.81452 78.29968
9.59238 0.6735187 83.35738
17.29238 7.262905 47.60626
8.433557 -1.870074 62.93427
27.09175 -0.7931621 84.78716
-23.54681 -20.14814 68.28654
7.451656 6.887091 41.25067
5.774158 4.782045 48.54677
-35.033 -14.32219 104.3237
10.60652 7.605233 36.44796
-11.85795 -0.6728035 83.48306
-9.6202 -2.556149 56.0052
-12.80921 3.956993 58.08478
-11.48205 1.242359 66.74623
-10.20769 0.4602983 50.92068
-3.435207 -0.4777047 75.04497
-2.992267 -2.82472 64.30957
-21.62941 -5.760633 53.93853
-40.57815 -9.869198 92.98137
-19.75692 -7.159681 48.97791
3.981525 6.125484 43.93383
-26.38181 0.4229119 57.88901
8.735804 8.240529 25.841
8.111363 8.641179 30.1004
-20.79172 -4.037806 52.96872
18.45145 6.285863 91.02061
-18.89306 5.213497 61.38693
-29.67916 -13.1505 67.24474
-28.80482 -15.99569 63.65553
-18.80756 -3.125046 77.92703
7.887672 4.814192 77.83237
3.399344 5.93309 78.60767
1.200742 2.453875 69.52155
3.905048 5.601636 23.5522
8.223065 7.965698 44.67546
5.797735 8.700809 29.99876
3.465209 6.26409 23.45976
12.92817 6.218299 54.3004
0.9272473 5.56731 25.81614
9.214363 8.122733 24.60803
16.19139 7.312473 39.54155
-4.421886 7.895228 48.58558
-9.651243 9.150438 27.77873
14.35292 -0.3417793 70.81919
0.6206115 -3.108943 66.96865
117.5744 -54.75217 546.4779
27.75513 -0.7783566 87.07786
-14.46535 -7.958572 67.25446
-12.08515 9.015226 31.37143
-11.8447 10.1687 51.0483
25.24036 2.873177 86.25831
23.72619 1.732223 87.90673
-23.57475 3.223663 58.23085
-31.38628 2.509271 81.66166
5.187614 5.928561 18.53999
8.688375 6.757388 26.42965
-0.9237393 -4.308379 80.62044
3.551572 6.066295 82.32568
1.168212 2.495793 73.73013
-16.67126 8.688677 63.66661
-19.38812 6.348151 65.99599
-22.55534 -0.3052556 69.3259
-15.65543 -3.915205 61.63824
-2.17575 6.052507 18.91076
-15.06027 3.551831 69.01295
-14.04438 3.311115 76.55072
-8.912466 -0.9118904 48.6763
-8.162171 -2.489882 62.99077
-0.2157644 5.269452 23.69086
-1.183717 4.503623 18.11088
12.72946 6.075965 53.55993
27.47904 5.384249 75.06587
0.798451 4.714707 22.11436
9.24642 8.155858 25.42328
-16.58862 4.31673 58.19633
-9.408944 5.847195 69.8086
-2.921478 5.18663 66.61953
-12.71254 8.195389 34.47571
5.661391 -5.054715 74.49977
29.06179 -4.632145 80.26019
22.55586 -0.5910257 84.37275
-28.77375 -22.36239 70.18894
-30.86175 -0.4168031 68.14389
-17.68458 -5.818681 62.40723
-25.22408 -6.824902 62.85742
7.70439 8.99993 44.91837
4.531134 6.688123 28.28849
8.442324 7.717343 45.5096
-19.80242 4.708922 63.31397
-15.83354 1.581825 58.56374
-18.56835 1.724123 61.35334
-3.451321 -0.4831154 73.31381
-7.11106 -0.6270221 70.10706
1.809102 4.79792 20.9299
10.39607 6.187046 51.6365
23.85552 10.58174 108.096
-9.265781 -0.4057851 68.82809
-11.80003 -1.164195 63.92888
-9.917084 -3.125648 74.29884
-18.26254 7.451169 61.61563
-13.77548 4.727685 51.65209
-16.73023 5.073046 57.3734
-0.4367628 4.435892 17.97511
6.015155 4.836563 79.21395
22.91335 4.005176 103.6815
11.516 5.660216 49.88111
27.87012 5.463191 76.42478
10.53819 7.46746 36.57767
-36.66118 3.562326 95.11549
-3.058295 5.256094 68.55266
-9.932143 6.056978 72.83298
-3.316339 1.623093 74.63119
120.9063 -56.77921 566.2352
21.54445 -0.4874558 80.78988
-107.2168 -91.01234 425.325
-41.39991 -96.22739 478.271
-105.4832 -89.50441 422.5719
21.66238 3.805478 97.54785
2.632463 5.453748 23.6962
6.280258 7.286979 39.87877
-15.76169 8.073296 60.98828
-16.86379 5.713539 62.90379
-18.05624 4.758798 63.04449
-1.747159 5.294967 21.05949
-0.3000408 4.921633 21.99627
10.49695 6.365509 52.96586
4.607353 5.025464 43.32276
4.641815 3.367826 78.19942
3.102054 4.732922 68.12285
6.149319 0.7267452 79.55823
0.868421 2.075069 65.28562
4.629149 6.743844 48.8855
19.61345 6.541481 96.70927
13.00171 5.419783 35.62711
2.814477 5.05189 19.19157
1.339407 6.117863 20.9333
-17.42551 1.888498 63.44553
-9.159858 5.371848 66.58425
-4.925373 7.491891 40.44189
16.23627 -0.3143615 78.64378
117.3177 -56.02037 556.748
23.61796 -0.3618881 87.85384
-42.67007 -95.99609 470.4409
-10.08148 -7.805997 68.37997
16.33042 6.175529 56.46113
20.44837 7.851104 92.55942
7.192178 6.752911 61.33957
2.347191 5.003062 23.28792
-21.40907 8.334866 72.22871
-17.48422 5.342566 59.18994
7.635686 4.9737 86.26975
-1.080909 6.408916 24.09562
-1.086833 6.766374 30.16853
-1.181029 4.510287 19.55838
15.07845 6.08598 42.64422
26.1586 -0.4334685 81.99777
-24.27994 9.696307 67.45724
-16.19616 1.594596 58.97391
-12.53801 12.09671 55.48765
-15.06481 -7.907832 65.02376
-4.551608 7.829736 30.44023
3.315623 8.203783 29.76007
-1.839291 4.870288 20.05146
-0.415806 4.189519 17.61082
-1.43505 5.844298 19.15575
2.218628 4.219549 18.6743
1.969279 5.59236 20.02187
2.352396 5.723382 20.45416
-2.609487 4.318253 17.36615
-4.045278 6.775344 27.21399
2.561188 4.955496 18.07063
3.800103 7.555609 27.44698
2.165064 4.658501 14.28072
-0.4754941 7.903334 27.40635
12.35048 -0.9842077 6.313196
7.821651 4.79067 23.26328
16.66571 -0.8904624 12.85106
19.22949 0.4296447 15.26435
20.33955 0.6478322 16.64359
19.56314 -1.410918 2.219291
57.84376 -5.564605 61.07127
45.91464 6.6126 41.26931
14.69137 -2.433815 10.72891
15.38059 -2.355616 11.68396
21.75105 0.6846699 16.89087
18.97639 0.1049533 13.78239
47.07495 7.000714 44.48281
2.512326 7.249864 30.63986
15.78781 -2.093936 12.03303
14.8231 -1.177804 10.53267
21.49741 3.079353 13.0354
35.82133 7.813731 29.36756
40.52383 3.853214 34.75785
19.60179 -1.257518 2.467711
15.15578 8.566807 26.83452
0.8272923 4.711284 26.51294
-1.131163 10.329 36.40149
11.85559 3.570109 18.71389
18.80235 7.609093 31.47881
-3.052638 7.43645 27.43765
-0.2130286 4.898814 15.24289
9.083833 8.963832 25.20238
-0.2887924 5.201438 23.68367
-0.236267 4.753931 21.70975
-2.96432 5.53514 24.52748
-1.463006 6.051979 27.23263
-4.859862 4.014571 17.38574
-9.787267 8.778872 25.16543
-3.411305 6.392666 23.62903
-2.690496 6.209861 23.17085
1.422421 5.979817 20.27006
-2.473872 5.671277 21.48218
2.104931 6.411251 22.54953
0.1385822 4.553298 20.46701
19.81451 9.668256 38.84627
21.98626 11.65251 39.67602
14.09125 5.324613 26.72242
20.42537 1.029522 17.95654
33.01595 2.605875 27.2667
19.30411 7.432138 29.77483
-4.152548 5.152148 23.57508
15.06435 11.67264 41.46911
14.25427 -0.7165892 9.47002
20.81326 -2.023318 21.28272
40.60777 2.098054 54.35706
38.34982 2.198619 58.01328
31.50454 4.182175 32.9942
16.78388 -1.767977 11.78701
30.16263 6.61994 24.6222
59.88667 -9.202399 59.24878
63.149 -6.776941 61.21346
62.3992 -6.20049 60.42553
52.4903 -36.0933 112.6563
59.06058 -12.92347 66.07703
19.62721 1.141977 2.344494
14.77084 -2.036657 9.124018
17.90705 -1.547674 15.97114
17.2992 -1.636557 15.03087
16.18671 -1.561932 13.11378
19.48232 -1.035848 17.96566
19.85479 8.622085 36.09743
19.49815 -0.4186203 2.353467
59.04143 -10.7341 59.70481
59.88206 -5.011646 58.93874
16.97596 -2.835222 -0.5332536
20.25138 -2.66783 0.6714563
17.07809 -1.760186 12.13047
14.06392 -2.134267 8.36862
28.75125 0.0425289 31.97356
28.41934 -0.0003191808 31.48368
19.22304 -1.042207 17.5773
23.23724 1.444461 20.52955
17.39397 0.1163737 11.32435
12.73984 -2.785688 1.846256
9.758662 -2.556194 -0.4857508
19.61774 0.9953024 2.213715
30.58907 0.4354708 32.49409
26.55384 -0.1376463 31.58515
42.68562 -32.54763 102.0342
71.28027 2.573397 50.24516
19.58258 0.5315301 2.49633
57.21999 -6.425908 66.33099
12.1735 -2.202397 1.487548
10.22793 -2.972525 -0.1444653
22.27172 -1.331963 21.49466
32.16889 -0.1017521 35.38463
27.19211 0.08392759 32.65467
19.06967 -1.217785 20.4247
16.84595 -2.00683 12.21295
15.68843 -2.16284 10.71205
59.81236 -11.82164 61.22609
19.55589 -1.617104 2.337278
57.1782 -7.894782 67.23168
59.25563 -9.739189 69.59677
59.86183 -13.90205 65.2852
69.47176 -5.062109 62.20427
23.41887 -1.24143 3.87026
23.41905 -1.24141 3.870344
20.73293 1.247435 7.090308
20.86339 2.078186 7.220703
22.9742 -3.058276 4.629708
19.51656 -0.4406805 2.339212
19.60991 -1.880716 2.555802
19.57644 -1.893942 2.57477
19.47198 -0.6589006 2.49239
19.62262 -1.932709 2.546112
19.55975 -0.9275045 2.686334
19.55116 -0.9289308 2.695816
19.53973 -0.6923623 2.725015
19.53699 -1.02614 2.819705
19.60345 -1.427846 2.736571
19.61141 0.1537257 2.85139
19.7224 0.8038433 2.798477
22.06474 -0.5450425 3.909367
20.34145 -0.2775561 5.829535
22.57146 0.7152029 3.722024
20.51011 -0.5213091 5.63
19.5031 2.371801 2.140189
42.66864 -32.26192 101.7269
19.56663 0.254876 2.47939
19.59699 -1.774396 2.445741
60.44772 -5.996704 64.09904
21.1475 -4.226892 2.98641
20.14765 -1.68074 4.147553
20.26841 0.9885842 4.239797
20.20518 0.1474794 4.237368
21.78134 -3.994356 2.539545
20.28297 0.7144567 4.469417
21.04147 -3.094892 3.446779
21.11392 -3.728799 3.327283
20.33193 0.7461045 4.430166
21.13927 -3.279127 3.343931
21.12369 -3.493066 3.341922
21.1461 -3.25734 3.342993
21.13724 -3.723915 3.314556
21.09468 -3.976875 3.340117
20.2949 0.021667 4.42086
21.12966 -3.940618 3.44659
22.91962 -3.995865 2.552857
22.13441 -5.614518 3.592358
22.17076 -5.622528 3.564542
22.15909 -5.616011 3.578535
34.35128 8.651179 17.32218
33.90282 8.650694 19.68713
32.88057 8.787977 23.02172
32.8621 8.785019 23.03936
34.86049 8.609008 23.47663
34.86064 8.609063 23.47676
30.00707 -5.534427 27.11751
30.85592 -4.764469 26.37283
49.71153 -96.04624 88.38177
68.19942 0.4621061 54.98639
21.8797 1.014782 3.605128
22.01169 1.231468 3.647561
19.62328 0.1126451 2.842862
19.60692 0.1433386 2.862683
19.5995 0.1155196 2.868938
19.65777 0.1474813 2.934849
19.67487 -1.421859 2.802926
19.8305 2.324539 2.947345
19.68488 0.1539852 2.923747
19.61361 -1.840472 2.840383
19.6074 -1.858727 2.849167
19.83195 1.451626 3.008556
19.88668 1.492703 2.969232
19.67424 -1.810648 2.921148
19.65523 -1.810726 2.945251
19.7428 0.8494123 3.186438
19.93663 1.496189 3.06764
19.71539 -0.03148378 3.162823
19.65141 -1.079474 3.402703
19.9389 2.353326 3.405349
19.55105 -1.272157 2.387573
19.59183 -1.870578 2.568747
19.52191 -0.8923917 2.711951
21.21215 0.2194013 3.874555
21.48169 0.3371346 3.762349
20.33003 0.1244855 4.902975
19.65366 2.018211 2.392675
19.9701 -2.239501 3.167361
19.97581 1.151087 3.56211
19.9231 0.7426539 3.581479
20.06881 1.728067 3.655286
20.05934 1.61922 3.792679
19.93099 -0.6971794 3.871697
19.9371 -0.6553329 3.872272
20.02542 -0.1216127 3.960744
20.02958 -0.1482961 3.958902
20.04116 -0.09704337 3.954821
19.95734 -1.169321 3.95815
20.10012 0.4913259 3.948971
21.17207 -3.79135 2.715065
21.17062 -3.805954 2.719296
21.34058 -3.574335 2.716882
21.36869 -3.989179 2.659059
20.0691 -1.142524 4.130411
21.17268 -4.202672 2.954901
21.16286 -4.181921 2.971318
19.58227 -1.885231 2.581923
19.53724 -0.8887759 2.706305
19.58534 -1.892633 2.582224
19.7475 1.287615 2.674605
19.57273 -0.8922396 2.674704
59.5987 -3.895978 69.31315
58.23595 -5.957656 69.28936
58.02548 -13.09806 66.70631
60.4556 -3.772759 70.07024
8.840267 6.76179 56.62686
-14.35206 -1.48256 33.10332
2.557621 0.5697808 22.4359
-10.38953 -6.105811 34.75318
0.7090264 5.230308 28.78191
-15.99905 29.38046 175.9686
22.83892 10.41643 56.96519
-15.78314 -17.87748 145.4095
-20.19919 -11.09344 95.51687
-4.692286 3.188111 14.59583
7.498674 8.630646 45.88776
-1.05413 -7.116596 66.87553
-15.26051 -2.888899 36.82382
-19.0514 1.262166 42.1343
-12.72437 -2.760784 36.58103
-31.30742 8.497835 101.6053
6.068134 6.930882 37.3073
14.58555 -23.95476 96.73302
22.12786 -18.44413 83.06959
-0.947084 -6.311944 58.52281
-15.96243 1.566175 59.29525
17.00565 7.250614 46.81549
-61.20498 -265.1884 912.7642
-1.18079 -7.634811 70.22326
-15.24189 -2.484768 37.6112
4.851349 -0.1995117 41.2443
-8.706006 -2.820853 37.85273
11.1825 -18.36211 73.64671
8.07431 -13.44888 53.61722
9.88633 -0.05298487 84.52326
-13.11185 -6.965945 56.68275
-0.8172228 -4.776857 41.67051
-12.40756 9.27 31.96556
1.601554 -0.2124417 34.13183
-15.85932 -8.320599 68.36044
-1.952595 -0.213223 42.9638
-1.170637 -5.67157 49.91151
-7.095827 -7.907557 61.67671
10.68897 7.258628 35.34372
-19.77438 0.2244222 60.33461
-4.486426 -20.50016 185.159
-2.084185 0.1339445 29.32427
-7.086832 -0.7450981 58.39939
-17.98548 12.66858 49.35029
-8.82719 -1.398235 37.0455
-22.47169 5.820008 49.55862
33.54829 -36.39526 151.8425
-4.342598 -39.09564 148.3114
-35.44783 -62.84204 228.6836
24.55922 -20.29498 91.78059
76.05791 -28.1479 247.0531
-4.499035 4.794059 49.05471
-4.64223 1.348398 21.21401
8.129802 -56.05418 217.928
-13.97411 -7.164163 37.36729
-45.67882 14.83697 157.4055
-3.123029 5.953548 35.93218
7.868465 -52.98825 205.9095
28.4141 -23.92782 107.6332
-66.96597 56.05354 458.4237
24.60888 7.416442 93.27544
23.05224 4.223109 103.039
29.18041 2.88072 109.0613
13.49677 5.318536 40.31705
69.04848 27.90105 121.6474
4.866431 6.007836 47.2618
12.40373 -12.90312 34.38813
11.20019 2.944655 17.52789
94.66416 -28.46624 89.82402
30.75109 -5.105333 30.06221
14.27149 0.9993703 6.313761
17.13944 -4.904098 13.2573
28.84308 -4.884737 27.48589
13.90086 3.424894 63.34007
49.48639 -33.09233 69.91567
28.23386 -4.90703 26.8593
54.12173 -36.06581 77.19183
21.3775 -4.466926 18.30386
85.39915 -37.6013 82.1775
72.87328 -13.09581 303.2236
14.62283 -1.342171 23.16624
12.00055 4.25282 33.28894
11.55612 2.936468 96.77556
6.573302 7.472704 40.60849
27.2898 2.139501 30.84962
25.86559 2.128549 16.61124
15.60125 -2.634223 23.66749
259.4632 -107.3605 272.9745
12.65171 1.768575 57.43863
14.59076 0.91075 14.4074
69.64193 -29.22606 142.4803
11.51568 4.15513 28.57581
32.42055 10.06059 112.4282
4.981929 0.8303267 36.79324
36.07949 7.670527 103.0826
-22.64514 14.00397 61.4859
84.80041 21.25569 309.978
-0.4231776 2.375149 15.35777
-8.316924 2.60997 27.86055
26.22315 -0.8320985 82.31184
35.05387 6.740859 120.8314
0.03300556 1.45061 62.54735
-3.416289 3.957507 76.52219
15.17221 -1.064017 24.23372
21.59259 -2.240421 11.04452
11.0318 -0.4416748 4.855609
18.35275 -6.27486 14.23508
22.60735 -4.445679 13.34574
20.19506 0.09001313 9.64616
27.98428 1.332128 15.25424
13.01107 3.031143 22.58091
31.57463 -16.37203 3.933816
41.20334 -20.81457 8.452716
14.87213 -12.12053 8.197921
15.92825 -14.13541 10.73198
27.31079 -6.055878 16.469
7.310092 -8.585582 3.36539
18.02067 -10.30668 -0.7679867
18.38875 -9.498195 19.98917
22.80792 -6.939898 12.85884
34.24117 -7.109112 17.43861
17.7077 7.648516 52.07135
21.83391 -5.889657 30.35043
21.23975 21.17705 131.0622
6.685138 -10.62271 140.6206
-27.47871 -38.97056 267.0917
15.19443 6.060098 43.94906
38.16179 -8.038368 17.81089
35.80988 -15.24199 19.6821
55.68785 -10.415 21.65303
50.54743 -9.065927 27.26987
76.53781 -13.31256 32.53603
20.73036 -6.676344 10.13159
19.81178 -6.489581 9.275265
70.37878 -31.29196 65.66502
7.00286 3.897732 66.15326
-3.497862 6.452463 39.57477
-77.04653 -25.14706 171.1001
33.6771 -18.09243 21.27143
71.37732 -17.01624 46.33315
202.3224 -97.61771 270.881
12.66143 -2.349875 6.523976
4.85965 0.6373841 40.94883
26.9575 -14.29393 67.80532
17.57371 -17.44205 72.59589
-18.28568 -7.703443 40.7444
12.39678 11.78406 35.87641
14.35932 11.84825 42.11032
-1.595997 -2.735682 36.60825
-4.859987 -0.5894914 40.19629
-6.633564 2.861175 32.55918
-9.987769 -9.721766 30.23808
-12.19594 -1.243326 31.72477
-13.84188 -5.767673 36.19823
2.674968 9.878079 55.24651
-3.820502 6.918528 34.90417
-4.500523 -1.030873 42.94556
-1.373737 -2.401793 31.6504
-2.621636 0.2452902 36.13746
17.43101 19.13575 63.87698
-8.826935 -4.787409 38.14729
-8.982961 9.288297 48.12672
-15.55527 3.299072 63.05144
3.140269 -6.871532 61.83474
13.49806 -14.96525 66.76746
2.946786 -6.645354 60.07147
-15.46832 0.2123438 62.75922
-61.23776 -18.55825 151.7634
31.44605 -14.26732 1.587435
41.20658 -9.927138 11.22777
30.34217 -19.19258 28.71739
65.83334 -28.61429 63.76958
140.0115 -27.69021 85.9631
679.5956 -302.146 910.1454
110.4619 -51.22846 106.6744
34.34713 -13.08109 7.712789
2.299093 -1.805569 28.78135
12.27023 -0.8066246 12.67672
33.23069 -17.12903 91.15028
-2.017317 -4.208901 47.49889
75.43434 -26.76285 78.73681
89.53342 -31.18848 94.45505
42.15572 -5.961583 89.20482
39.85771 -12.3245 82.39877
21.53707 3.735145 70.49827
37.75188 -5.77844 79.63063
2.405908 8.131866 46.51112
3.224986 5.810875 42.7657
8.279286 5.660897 49.86511
-567.5348 -304.7418 2642.917
16.00962 7.345194 37.82708
-5.304311 9.468477 57.76197
-12.09129 10.60629 48.18816
45.61035 -11.1475 105.7115
8.238031 7.426796 55.13697
30.84707 -14.84929 144.5509
-16.31213 -5.82094 35.28186
175.3633 31.22124 799.7235
-12.82249 -6.951128 33.5652
7.090412 10.81463 77.51564
-12.71657 -6.873388 33.17194
0.563745 -18.28987 69.26933
11.84928 -19.23638 78.06991
13.60443 6.323211 53.82462
-9.590687 -19.46275 61.94441
-4.330825 1.317451 25.93774
-7.306031 0.6793792 30.56511
-7.602472 -4.113393 32.83775
-34.78244 5.02609 79.4749
9.739615 2.609023 92.38885
-15.08468 -7.531924 66.08571
-31.17994 2.287722 69.10439
-10.36418 -1.103959 42.09792
-22.10398 15.31119 58.39654
15.82454 4.127689 55.77426
-14.8992 1.235198 51.10662
-3.39891 7.063346 42.52877
-0.7935919 1.76892 29.45293
8.490229 -0.467867 41.94741
44.39583 -15.72882 8.80532
27.41697 -12.92523 3.629299
63.73798 -13.80355 22.89394
83.8607 -5.195732 102.1941
47.22221 -12.69104 22.37178
28.27522 -8.124257 17.50047
65.85353 -29.43492 60.73248
37.00141 -16.97249 19.54567
40.25042 -6.967174 6.954349
31.64278 -13.74168 8.17092
-20.08311 29.11487 155.0423
14.74097 5.284181 73.21124
54.90494 -20.31372 178.4198
-19.90129 5.324888 64.68737
-41.36154 4.206373 154.3173
5.997834 -28.37414 110.5697
-12.71228 1.137753 46.6843
13.8372 0.944212 85.097
32.54321 7.384447 118.6205
19.1801 1.637396 85.81013
42.12748 -7.178734 32.53797
44.02123 -7.290591 34.66847
17.44379 -5.705845 14.03206
96.74094 -45.30714 96.7235
31.53873 -17.21652 19.3108
48.13745 -23.60194 57.32296
33.56597 -22.64499 34.82219
29.36769 -19.89472 29.08611
69.79124 -14.76651 16.81428
17.30351 -14.25149 18.68429
102.3912 -20.64643 59.83773
23.86256 -17.50679 21.12008
30.81984 -16.92007 41.45454
11.08134 -16.32187 46.2135
40.20425 -22.92506 33.71542
-20.99278 7.239356 128.5571
-6.969836 -0.7021518 69.4157
11.88291 -13.25459 58.59614
3.539122 -6.71845 65.98713
-17.3046 6.922562 35.64104
75.25223 15.15542 256.1715
-1.394333 -2.333158 30.93093
-10.07174 4.94733 37.91742
4.489071 6.69328 48.16502
32.19876 19.06227 311.4253
10.95809 -18.18865 73.11296
8.024517 0.3573816 29.23503
-0.6038045 5.703682 22.6193
-14.45228 9.030705 36.47498
12.75081 7.191461 26.91438
12.08122 -0.8020794 8.588929
53.41616 15.08261 258.7253
48.32217 -29.52846 50.09267
21.12639 -3.799058 12.2291
13.55726 -0.8545114 11.13454
27.34055 6.088836 99.69816
20.47699 2.083401 82.93263
29.8373 -16.6475 78.57622
24.75583 1.307756 76.9315
20.64366 1.969625 84.13618
-10.83744 4.2358 59.77555
8.475986 -0.401602 78.09071
-8.133204 3.62587 32.43565
-8.311379 -0.4101118 26.37345
19.75961 -15.2857 9.110415
2.599111 -0.3151926 38.73587
14.26505 -0.799809 65.12804
257.1115 -138.2196 282.4985
22.1038 8.027446 35.57604
90.53326 -8.678651 136.7952
30.84393 -20.41395 126.3016
55.65736 -30.89626 54.97315
-99.09576 -39.77518 247.8557
9.213178 5.444448 82.53896
-54.11982 -33.067 149.1778
-45.67584 -7.953113 117.6657
-55.65809 -37.15629 150.6537
-49.75436 -13.63324 123.7581
-75.8925 -22.81268 167.3201
-86.81837 -32.48021 219.2082
-39.18851 -2.228025 96.84481
-8.574793 2.127286 52.49508
-43.89645 -2.843973 97.34332
14.11379 -3.390976 4.797061
13.18298 -3.392604 3.920597
17.34395 -2.683713 8.684628
28.37733 -17.64629 17.1469
21.17585 -9.968268 9.972453
28.73242 -17.87329 17.52462
15.6254 -1.09126 25.06347
24.92676 -4.778224 51.1219
23.46985 3.452398 90.60249
5.035355 2.992134 82.17262
14.55191 -0.4363697 21.51403
15.28796 -1.113311 24.17557
-5.9391 2.53316 41.99091
-3.748821 -1.94815 30.24886
0.6439148 3.775553 22.04498
-17.62403 -6.109246 62.01219
1044.688 -386.0958 1625.568
145.9979 -38.40006 231.9281
6.49197 -2.972548 3.053168
31.66595 -17.01249 18.49105
10.73412 -11.63266 17.46988
23.85643 -14.97502 24.27173
19.26488 -4.051057 11.01843
-9.630004 8.544287 25.28158
-9.929407 7.879714 25.81084
-11.72307 7.367899 28.49369
-16.3541 -2.53617 36.2304
1.891326 5.325531 22.91747
10.76499 -1.87494 5.420197
9.832176 2.273403 17.26402
13.53486 -0.6950468 15.10513
89.7909 -21.23287 138.965
14.89892 0.6939472 19.39695
15.13096 0.6256167 19.95184
35.32498 8.741672 116.3135
2.969593 -2.734269 7.119768
35.45457 9.201028 120.4051
3.452336 -7.109484 65.10891
-14.16912 -36.19602 169.5768
-4.876647 0.8423505 21.66736
-2.22649 7.080835 32.71817
13.70689 6.411101 51.91071
31.16578 -8.670098 20.21437
27.87418 -15.15902 6.243214
48.80931 -12.25971 37.67356
47.65075 -12.81525 23.1874
40.17813 -22.28699 29.40829
47.51146 -7.672066 66.65721
-45.49908 -9.181417 115.4986
-102.0028 -16.84542 249.38
-93.62789 23.6158 250.7215
-97.26617 11.51262 245.9283
-86.69897 -32.39618 218.0475
8.838445 7.952787 57.40876
-67.38329 -24.32327 150.5006
-67.23836 -24.27371 150.1746
52.41442 -8.757002 18.24285
15.17533 -13.61207 9.815611
10.14209 -9.575103 6.277442
12.00543 -10.57653 9.31927
42.67208 -7.9485 13.52195
55.29159 -19.01881 12.7322
16.23127 -0.2431493 26.44943
15.21714 0.7994214 19.71529
46.32841 10.56134 178.1495
9.026015 6.630657 50.34643
49.98333 21.32913 246.6373
34.12318 -11.20052 69.95467
2.578006 -5.500114 41.90296
-8.910984 0.005508157 36.45877
-17.01933 7.348566 54.34219
-17.71368 7.461287 56.69637
24.0388 19.14559 144.2368
-14.02898 -11.04692 34.27104
-26.44978 6.919161 58.37602
-38.04776 10.14977 133.4459
57.04518 -10.61661 22.4414
24.34205 -6.343561 23.35774
44.07218 -24.81873 41.36564
10.82471 -11.73826 17.7203
14.40073 3.570157 19.34499
105.3142 -30.60812 99.96221
19.2567 -3.862379 10.57232
35.43649 -31.49813 74.27168
41.82573 9.370774 179.5677
13.57133 -4.481752 7.470519
18.40831 -6.752023 14.22312
24.07594 -1.891845 15.01753
118.3905 -50.8684 123.8929
20.98374 -3.944332 12.16896
21.38662 -13.21565 67.61053
18.34155 -6.733531 14.05888
42.8456 -19.03818 9.372196
69.03774 -14.63859 25.42089
45.43201 -8.139695 22.54074
52.33416 -8.213505 14.63852
53.99684 -8.440914 15.14046
109.1644 -15.44702 72.07119
4.956755 -3.262508 -4.762578
31.11392 -8.932057 6.530144
64.16965 -37.93648 83.41776
58.85472 -15.24605 30.14534
29.87704 -15.32629 12.56436
15.9821 -23.49382 71.034
42.31901 -5.463547 88.66985
9.308267 -15.69334 203.3484
19.80422 13.84122 97.35874
30.68147 -13.60509 43.65968
12.5706 -19.15958 55.25219
11.72113 4.436382 29.05572
-5.180357 1.838412 36.40028
14.63534 -1.366229 23.23259
16.93039 5.079772 81.56534
9.088956 6.660748 60.34837
12.90536 0.9537266 14.61837
13.70899 -0.9328353 15.0373
12.37916 4.269755 35.00741
9.650184 -5.229362 51.00002
39.80292 8.438606 115.1116
0.3581591 14.02798 67.2401
12.92396 -0.6235626 9.483088
8.690624 -5.021584 43.98766
13.03862 -1.054826 10.29995
59.88315 -32.6184 87.56027
9.283373 -10.43139 22.80413
17.09272 2.320069 24.67213
9.355923 -11.07341 25.73102
12.75676 -1.083124 56.14023
13.55553 -0.4987794 15.06199
9.380594 0.848446 7.638006
15.43116 -14.26199 40.0495
14.78189 -15.47144 65.0213
47.81571 -12.05528 72.36375
7.840055 5.080829 48.80786
59.41592 11.91316 214.9752
9.441694 5.326539 33.19336
44.75553 -13.91984 93.25803
-5.055717 -5.456288 31.7665
8.127035 4.750129 27.55067
35.30967 7.538711 101.1881
13.67324 -6.276889 77.97208
19.67279 -28.83365 93.61731
-10.84412 5.946226 54.49154
8.305313 4.769544 79.68784
-3.125616 6.108285 75.39332
-12.33496 -6.607576 52.97986
16.43693 -6.801786 10.028
51.6456 -24.63153 47.87623
10.15098 -10.92064 15.61657
17.64825 -6.659161 9.788918
139.7736 -74.28374 150.0297
51.48209 20.9339 101.9515
26.97405 5.412018 39.22148
68.35706 29.5156 139.3524
15.73818 1.246784 21.68495
22.6844 7.30301 52.72245
24.5775 4.536691 77.22376
13.29419 6.499504 50.73643
24.3139 1.528 89.70293
9.680558 7.402739 61.62917
-3.853648 1.37584 59.41782
4.43861 4.640601 40.22847
12.45823 -6.158433 70.38284
2.661722 -6.542079 57.26199
14.98616 -15.86549 73.52766
-64.66882 -8.902526 144.0023
-2.837343 5.538282 69.77654
14.41123 -15.50527 70.59992
3.381398 -6.728397 64.50898
13.83451 -15.29741 68.59409
12.52387 -0.6858693 9.178505
16.20651 1.251096 21.68584
13.46443 -2.875185 18.83511
203.4724 -20.91416 316.8281
6.544728 -2.439512 3.525288
9.734746 -10.41009 14.40874
32.01566 -16.32752 14.09185
30.57169 -14.04685 1.055599
10.0348 -1.624489 4.023683
9.85586 -1.040816 4.546506
11.22788 6.939828 100.6656
8.048028 1.073507 90.50884
6.816397 6.974277 38.26735
-1.518024 -1.001995 11.00099
10.85003 5.98854 50.71942
22.46489 -4.470562 45.24479
34.99355 -7.847307 50.42339
-10.62437 -18.53151 107.6965
56.36586 -9.930857 23.82885
46.58526 -20.8378 42.152
31.15961 -9.033109 6.516965
67.28761 -12.33294 63.83336
34.17871 -11.71546 27.54352
66.4883 -33.64044 85.57156
551.399 -329.4183 674.7139
14.97456 1.271009 6.99259
18.77532 2.680142 10.56074
57.76777 -25.92973 44.08046
-19.03683 -29.74191 191.522
12.1075 -5.952009 67.73602
-3.478836 11.17584 45.13166
-19.82859 -32.12112 199.4456
-82.58182 -27.28512 341.9884
3.809121 0.02997744 75.18185
18.12902 6.23286 89.87782
0.8653708 1.506623 55.76725
26.91498 5.813127 86.04906
9.078012 6.460256 48.09772
30.36223 -8.365805 12.48512
19.50434 -0.892976 7.672957
266.6172 -111.7264 290.8433
28.24096 2.218969 15.76424
10.25746 -2.803395 1.488035
58.43209 -33.18188 59.48511
13.71265 -0.3594381 4.927756
11.76057 -3.413771 2.50199
10.78406 -3.412875 1.56203
11.40069 -3.449428 2.17309
85.86942 -42.91667 113.5352
7.741811 -7.791689 14.14736
51.85065 -24.23302 50.59669
13.99478 7.054945 59.10611
12.03415 4.80948 29.55702
15.51452 0.2175323 24.97176
-8.8146 -16.29134 66.91376
14.53599 -3.086467 21.14728
9.511938 2.136078 16.68317
8.606623 2.102396 19.50917
38.8889 -8.34077 56.56956
9.641725 2.247085 16.9362
3.617288 5.652729 78.00517
74.7848 -34.99223 110.6957
14.06801 -11.05917 46.73163
15.79593 2.155212 19.33969
3.026047 -0.1102054 35.04374
7.710568 4.616282 51.15868
14.80203 -0.3259974 21.44902
118.4894 -43.41954 183.0058
6.020056 2.669148 54.34797
84.47041 -41.7019 127.0906
110.4502 -53.81958 137.8513
24.76218 -19.47401 30.27521
29.48497 -10.99251 5.142121
32.06843 -20.46845 24.96052
22.69393 3.165502 15.2206
38.44399 -10.17301 9.638817
25.03936 4.026698 17.74707
2.146441 -2.111619 23.32177
9.945534 0.9989409 8.400503
6.816576 3.92506 20.19239
8.918284 2.923426 15.57898
16.18201 -0.09044235 24.66628
14.89709 -0.07069348 17.15885
9.433784 2.256433 16.39294
15.91815 2.178061 19.61274
-12.99937 -6.938404 56.25051
19.62752 -12.35295 57.1307
13.89562 9.681331 51.46538
15.32003 -22.76742 68.34793
-4.823246 1.474521 34.03341
59.26348 -13.49378 31.83564
18.78068 -14.87503 20.00744
54.89447 -22.12234 35.39769
36.17841 -16.24681 2.981942
21.24254 -1.902635 13.89774
18.16897 -2.164816 10.6134
1433.244 -157.641 1297.803
13.90804 -12.50202 8.21536
35.33489 -7.961792 23.27338
8.226102 -1.835537 2.58647
14.76967 -12.87696 8.895563
41.78216 -18.56233 9.035281
14.05299 -11.05418 -1.009379
13.42082 -10.39645 0.9808844
34.03606 -18.19503 20.45184
10.73147 -9.727976 14.07002
60.46484 -32.00129 82.57923
16.53661 1.549581 23.32463
141.8204 -71.87967 200.09
20.56921 -4.679404 18.73621
18.24783 -5.134653 9.918051
54.11443 -20.48264 20.96917
11.94327 -5.773749 5.319974
31.40813 -19.41102 35.31701
16.93722 1.705844 24.04303
15.72356 9.578737 72.54076
26.72944 -14.69095 32.7339
22.88865 -12.94547 3.483052
355.811 -172.0674 304.7211
14.79725 -8.648012 13.85507
36.99148 -23.54811 38.22177
48.17786 -32.37919 121.421
16.53652 4.913126 30.02411
37.00394 7.765656 105.7837
16.42218 4.858027 29.90562
69.57808 -1.828933 101.6842
9.569186 2.307247 16.66398
8.492448 5.16056 29.10794
75.33605 -35.7934 112.6882
77.73782 -44.28795 87.02126
25.69567 -9.163177 20.7898
26.18257 -5.659412 3.817379
47.00339 -10.90946 15.15929
22.77722 -14.89401 15.15524
111.8212 -0.4057176 169.366
28.17727 -17.92406 25.45114
9.792547 -1.687174 3.691305
158.4716 -82.39095 175.643
8.493872 -7.006801 11.92316
3.279548 2.977072 28.39725
89.06263 -88.33393 524.3135
16.74888 16.92605 73.59874
12.57864 0.8903005 14.29075
170.6356 -57.07273 184.737
14.66231 0.05458225 16.12709
57.58612 -9.848055 120.377
123.5249 -42.90695 126.7908
8.740711 0.3745159 7.346278
14.8943 0.5597267 11.25738
17.05108 -6.850108 11.78095
34.45195 -4.84299 34.42879
29.59397 3.901919 43.91918
23.16127 1.513583 14.20803
17.81567 1.781166 12.90812
28.55874 -15.076 13.35301
39.16703 -22.33378 32.59655
22.91538 1.08515 11.44931
20.10964 -6.514591 16.48306
91.89262 -32.53485 93.69752
18.4505 3.081547 24.0834
16.3351 -0.3640722 15.28048
12.53597 -3.044158 21.88689
16.07697 0.1288657 24.31353
39.80686 9.412027 125.2478
105.5815 40.9803 386.1382
83.4008 30.70599 300.6387
15.67486 0.9049643 20.91946
12.40302 4.3966 38.29137
12.11903 4.964464 30.04699
56.53089 -39.63074 113.4687
41.236 -21.46619 47.28798
33.10669 -14.9473 26.3388
42.7929 -19.61434 34.86794
17.79719 -11.96099 19.23203
27.79843 -9.569387 36.79283
10.52028 -5.408873 3.579686
79.161 -31.38529 114.4304
26.10689 -9.233619 21.31665
33.49212 -17.50022 42.05234
24.42158 -8.129523 18.18746
22.29972 -7.590137 15.78498
40.6619 -6.846301 31.54891
33.73246 -17.45158 5.771768
31.42171 -11.26704 15.83076
33.52497 -20.76064 26.37717
7.800749 -9.14068 4.367336
32.37763 -6.20334 6.316476
38.30386 -18.35872 18.38437
31.27881 -16.304 15.41344
70.50349 -14.99321 17.02198
28.14735 -3.895119 20.19097
4737.493 -628.8759 2996.662
33.47608 -15.2974 2.257308
49.29631 -12.47058 14.35774
8.818455 2.038076 18.40721
12.38456 0.08910873 7.599068
57.90577 -9.33884 21.29647
40.28829 -10.67746 29.46422
28.27416 -16.63761 20.31381
62.70117 -16.35746 96.20884
14.59095 3.855146 26.03092
16.62679 7.676379 54.36986
114.9607 -16.09276 249.665
72.74117 -18.47841 112.7325
58.45808 -38.25347 85.08656
11.27617 3.653052 32.74242
2.610116 4.34124 61.29848
22.98563 -4.379531 13.61655
23.0582 -7.154186 17.57383
21.8611 -2.152295 11.19095
93.00639 -46.57222 140.4554
13.25149 -0.02151374 9.846078
67.76492 -12.55481 283.7367
61.71719 -9.150775 14.07268
27.63448 -18.81487 33.34651
18.78575 -12.56333 20.88301
15.55818 -1.821906 8.958241
37.53987 -15.82095 12.09082
140.7483 -36.40013 232.6804
15.52912 -11.6839 15.38384
130.3106 -69.07063 210.7316
47.87844 -7.728393 9.598964
18.52492 -7.131033 20.56936
108.8086 -47.98258 121.4591
27.87039 -15.27541 6.853884
53.79429 -18.47338 12.07565
44.29277 -16.02875 12.12599
10.21943 -1.860134 4.801562
21.13749 -2.916712 23.58979
26.67764 -9.216327 34.74424
15.34417 -4.802194 6.890612
73.11878 -11.71847 46.28395
97.18381 -38.8891 94.28886
435.4888 -324.1599 421.9982
58.97498 -23.95447 82.76041
88.6287 -40.77084 88.00729
10.90976 -1.485335 5.268788
13.76014 -0.8158486 8.803336
15.68246 0.7721608 8.830646
265.7152 -128.4779 368.2793
80.00807 -28.22668 83.86012
242.9508 -104.3007 259.8773
24.64113 -15.80534 20.87437
36.43752 -19.46177 23.74549
12.99601 -11.51049 3.350427
16.97842 -11.28775 -1.22516
22.60848 -7.042346 11.79303
93.96013 -43.69436 120.7679
55.51381 -24.46095 47.79357
18.80529 -6.341014 14.85205
26.15501 10.42344 43.92343
17.83433 1.831596 9.644855
309.6126 -116.9968 318.6849
70.20752 -12.97252 45.15684
36.90576 -39.3887 88.35422
152.1049 -57.24049 145.0167
17.76213 -5.002376 14.11938
10.6198 -11.90721 49.58234
8.936079 11.71257 57.51599
9.834735 2.575493 17.28522
11.96961 -3.525273 4.997567
19.28872 -2.656525 9.640559
1301.575 -543.0531 1517.265
14.69574 0.631887 8.932584
58.14551 -13.96433 36.1698
31.69297 3.474653 22.1902
16.14548 1.26534 14.63401
10.96753 -10.09782 13.98689
19.88315 0.2539443 7.872191
11.01646 -10.14036 14.16484
58.23024 -17.12145 87.33681
59.11323 -15.42931 36.51977
26.73545 -6.063396 51.51007
248.6565 -91.6807 241.8145
67.7048 -10.295 143.406
26.98699 -14.40364 1.91685
13.53661 -1.538605 4.397468
59.42791 -26.66121 45.55134
32.4749 -12.18779 6.683433
26.06292 -14.86981 19.33577
18.68837 -16.1812 14.12348
21.1686 -16.2614 9.972586
38.24162 -18.65276 41.33143
21.43861 -5.025258 1.212332
11.36584 -10.10239 8.26966
11.33091 -3.041494 1.024444
11.07101 -3.082425 0.7821416
10.66003 -2.007925 1.743326
26.06849 -6.549047 22.98293
316.9192 -106.3968 340.3617
43.37999 -5.999712 60.45409
17.92774 -5.916935 13.97998
40.13834 -6.542547 80.95836
18.82072 -6.367895 14.88216
17.4835 1.729337 9.280349
22.79145 -1.267852 13.58922
44.58848 -9.409324 26.29459
21.99728 -6.724648 12.07477
24.18501 -5.200414 2.32819
95.88161 -16.17673 52.97076
89.19777 -15.00033 48.68995
33.14933 -15.56556 16.75044
38.45263 -14.33978 9.601415
26.81222 -14.6447 5.733787
64.49313 -16.48171 33.61179
42.92699 -7.799179 20.7196
64.57904 -21.91945 19.94294
33.06686 -19.24156 24.97763
64.21756 -13.88246 23.40417
25.5939 -9.136036 20.7079
48.95538 -12.45836 14.28985
50.86493 -12.84613 15.1333
36.69176 -8.00365 24.86359
26.90134 -14.80276 5.414742
65.1844 -14.34073 15.09183
24.79484 -14.52326 8.588194
35.37132 -9.30069 18.2798
34.75582 -7.753837 23.19793
35.68041 -18.95253 10.67403
45.94102 -9.375988 21.2406
21.15433 -12.0213 9.345985
28.02369 -14.95702 33.35403
41.30812 -13.40144 34.7287
14.20514 -9.171181 38.61227
16.9136 1.476171 8.719561
13.9773 -1.716409 4.668946
21.12226 -2.271337 10.62836
23.10273 -1.93585 14.0917
29.57314 -20.41687 37.86747
195.434 -55.00486 191.3504
20.79297 -3.849455 11.91737
14.56783 -9.452095 40.39457
24.91273 -1.817882 15.82029
37.13939 -21.19783 30.4879
31.64999 -19.81248 29.57578
23.67417 1.56679 14.61745
15.06027 0.5174527 8.721356
25.84891 -5.296733 18.39824
12.75023 -12.72702 10.02431
29.81552 -13.1917 15.73659
32.92634 -16.92937 4.221502
17.23459 -15.21133 12.40347
7.508127 -6.341423 8.973464
61.53814 -31.44993 89.44791
26.02654 2.672999 98.9081
14.27928 -0.7765546 18.14579
14.07348 -0.8467115 17.83248
78.45137 -31.11874 115.2973
25.09605 -10.79672 18.86864
18.85183 -4.959127 20.72328
27.87969 -16.19244 21.07045
60.10868 -20.19244 14.18185
64.78722 -9.354902 54.95319
31.20349 -8.488776 13.23874
51.25737 -13.67731 30.43986
53.05362 -8.641299 18.54843
25.88955 -5.280674 18.44021
23.88363 -5.133657 16.48114
137.7285 -59.08099 152.8844
63.29095 -11.06901 255.8224
12.91665 -0.1264047 9.106095
24.52822 -10.69636 5.23065
11.32979 -4.381485 5.480579
7.629587 -8.835671 3.90466
42.85345 -29.29499 20.42214
13.31718 -7.52076 11.57922
27.15103 -18.32927 26.09465
7.534108 -8.743662 3.743914
11.9759 -11.10517 5.853425
34.4428 -23.98235 8.898868
72.54933 -28.87023 102.8398
63.26567 -13.64234 23.00285
43.80859 -28.6452 192.1287
211.7689 -43.09833 196.9301
248.9447 -45.47106 77.40307
60.35865 -9.426027 8.762549
15.16795 0.03714956 17.64745
100.8316 -39.71364 148.7903
327.2201 -122.7849 336.6315
1501.568 -589.292 1594.04
12.97765 -11.85528 18.7424
46.18864 -28.47796 48.78701
7.944178 -3.658535 5.043367
17.31368 -10.95162 18.0832
41.3445 -8.455271 18.40582
40.39056 -14.56572 7.483644
46.75928 -11.20705 23.31239
33.29081 -8.769004 16.86478
30.29428 -8.432014 14.68519
41.75682 -23.37218 59.7673
70.77209 -9.854819 17.27293
312.9552 -5.506878 288.5072
58.93379 -9.356539 85.97883
35.40657 -17.94155 16.16469
20.04432 -13.27183 12.33752
86.61575 -49.36906 98.24905
17.06478 -12.14522 12.58749
47.18107 -13.82632 67.59883
301.8049 -102.2086 323.1817
31.34076 -18.35063 23.22992
21.12255 -0.6049081 29.80854
15.68807 -0.6875401 11.84927
29.55082 -15.17207 12.27723
45.49051 -7.464934 11.65736
54.22373 -8.791048 19.14564
57.73506 -13.84484 47.1461
42.25389 -15.49634 11.26803
40.69635 -7.107959 9.788298
17.51862 -14.76125 12.13934
19.66915 -8.163146 22.40901
9.222937 -9.376904 2.555027
20.7366 -13.78885 24.26026
17.51943 -13.02984 18.8466
247.8837 -119.7139 346.6361
28.39778 -8.048741 11.15227
14.2663 -11.1661 -0.8268502
16.33879 -12.70012 5.231043
11.89613 -11.92837 8.540668
17.99534 -14.27312 3.833341
38.35063 -18.69123 10.33835
17.77424 -13.68795 6.450233
15.3408 -12.28995 5.260293
115.077 -57.31979 179.5383
81.36501 -10.68292 71.74812
57.33825 -14.0899 45.19059
43.06731 -10.70437 24.19016
110.0408 -54.01772 147.8208
35.39714 -16.76469 18.51036
41.23775 -6.944597 31.65321
235.9841 -121.1414 244.74
17.33437 -4.621861 12.09769
68.4728 -17.77837 67.53695
87.7069 25.84462 98.60639
21.37848 -15.25528 5.562639
46.48443 -19.07177 41.47147
14.00495 -12.21728 7.955183
51.21663 -25.8925 16.93594
31.72587 -16.97102 7.638536
336.2601 -147.0534 344.9662
7.432353 -8.657211 3.55216
14.73472 -11.66366 3.879134
365.8958 -101.7584 257.4808
10.58121 -9.915546 7.022653
30.34183 -9.470902 40.41491
85.92023 -19.20556 71.55666
21.03253 -3.804071 12.74266
102.5188 -16.53115 46.18824
204.6597 -46.96707 147.1818
35.26102 -15.89603 2.270243
23.06297 -12.98914 4.409575
17.90339 -18.42126 22.63343
6.944914 -9.051729 2.434742
224.2275 -75.70656 83.61895
108.6571 -52.94533 84.45177
28.72659 -18.14463 35.97476
18.69518 -10.63725 20.44067
31.65026 -13.73852 8.231999
25.58767 -13.68379 1.747605
23.97692 -13.38473 3.999903
24.71833 -14.46462 8.579112
15.77418 -12.71084 9.146789
10.06077 -9.502146 6.099121
104.0284 -15.42526 50.55522
40.22348 -15.75778 8.695351
10.91175 -10.81053 4.673523
22.1334 -7.27747 13.01172
26.49459 -12.68209 2.917779
17.38963 -13.64407 6.991764
14.52898 -11.3522 -0.8234736
12.9518 -13.31993 7.236147
55.525 -24.0558 50.13777
19.13605 -4.870215 10.27823
40.03501 -31.16323 39.12995
18.8805 -1.30535 9.418564
25.25762 -14.76195 15.3527
16.33186 -15.8636 15.44112
10.76964 -3.675148 4.32404
33.04921 -18.27269 21.49628
16.87533 -3.47086 7.378378
17.20856 -9.164533 -0.7382711
20.96242 -9.483731 1.229818
5.755151 -7.715829 0.3540322
43.90152 -3.393562 47.76018
32.08371 -2.976686 24.00711
23.90038 -17.33543 8.101732
26.08526 -13.41397 10.07921
208.1589 -38.98305 265.3225
23.0563 -6.740489 21.74334
11.52333 -9.747981 4.219351
34.86992 -8.808967 4.256094
27.26865 -15.14623 29.90293
17.67388 -13.12492 0.0003152884
45.31462 -28.27075 47.8666
26.05264 -19.20144 32.22445
17.03094 -14.31823 17.62821
40.30199 -17.13797 16.57034
7.906024 -4.085921 -0.1893532
4.978426 -3.362223 -2.268075
1925.643 -816.8691 2314.189
11.87232 -2.000865 2.684719
13.64248 -5.522622 -1.714203
1034.283 -388.1942 1066.691
15.90954 -5.627699 -0.3699196
24.73627 -13.79604 4.228163
11.71824 -11.05188 6.438303
8.067921 -11.1616 5.088343
17.41631 -4.71608 19.00607
11.22616 -10.51071 8.145327
9.691958 -2.699049 0.3728634
8.04844 -3.88349 0.3190884
78.75262 -45.57869 116.1874
23.74915 -17.58448 28.49488
8.546722 -3.847449 0.5644873
39.16733 -6.638276 6.060825
9.662827 -9.114439 5.403501
78.73701 -37.70525 17.86838
41.63522 -21.81698 12.77067
