# .PCD v.7 - Point Cloud Data file format
VERSION .7
FIELDS x y z
SIZE 4 4 4
TYPE F F F
COUNT 1 1 1
WIDTH 713
HEIGHT 1
VIEWPOINT 0 0 0 1 0 0 0
POINTS 713
DATA ascii
-172.3457 -18.0546 286
2672.342 -1141.062 6636
-225.217 -188.2666 589
-134.1462 -235.705 605
-407.1924 -1668.21 4977
-98.74088 -251.4647 609
472.5027 133.7063 648
548.7615 123.3947 856
-47.74225 -294.372 623
-104.5351 -300.4708 606
-99.06515 -331.4458 611
201.0199 132.0123 469
465.8873 119.2143 827
345.4627 122.4521 806
-144.1597 -293.32 601
-214.17 -282.4048 588
-143.9198 -309.9326 600
-224.0699 -336.1042 586
-25.9604 102.5604 738
-123.1461 54.60788 736
-25.57345 12.49953 727
-137.64 6.801441 722
245.8296 138.1308 347
210.1782 138.1049 336
243.8218 134.3043 385
-161.4912 -114.8363 596
-177.879 -117.5291 594
-135.9381 -138.7452 606
-220.2641 -154.4297 588
444.3218 -53.21687 843
327.8835 -9.148001 809
407.8531 -93.36877 831
391.1324 -86.07271 823
-611.699 -1381.777 6636
-107.4977 -116.5704 605
-97.3225 -149.1441 610
627.8428 -5.409057 883
524.3646 -47.38382 856
601.4343 -84.03201 868
-41.21622 89.24462 195
-412.7952 -334.8936 665
-427.4387 -351.7184 661
87.93777 -56.14788 764
0.8197806 -49.09207 747
79.39122 -71.4188 758
43.80711 -69.0883 754
313.2106 -34.30151 809
172.1972 -39.03453 778
268.27 -83.66727 800
172.4185 -83.4894 779
175.9958 139.939 254
166.7821 139.939 254
-310.2977 -345.4692 686
-368.2836 -334.6828 675
-329.6932 -357.5913 682
-366.1951 -369.2895 668
-192.1511 -15.51702 716
-221.7639 -9.784753 704
-157.3413 -80.67241 718
-223.9056 -64.59848 705
174.1293 139.049 324
159.4442 138.6537 386
216.118 136.7076 389
-311.6547 -211.3044 689
-388.6941 -215.4359 674
-337.2552 -280.2507 683
-351.6309 -254.3533 680
-165.57 142.9525 350
-167.3837 122.0948 350
-219.9713 139.7932 392
-131.7093 142.9855 271
617.6202 62.65392 875
481.1669 98.61629 799
689.7104 36.13704 892
509.0777 21.19641 849
-137.1928 143.0645 374
-112.1458 140.8631 395
-142.6137 142.6765 409
311.6619 59.72737 805
174.6997 75.4796 754
298.7758 17.98976 804
219.3282 1.298035 788
-60.21572 -46.46217 736
-95.26899 -47.77769 727
-65.93667 -63.62501 736
-90.74648 -82.87759 721
67.23865 150.1033 559
17.73643 152.2381 551
94.49073 126.7933 769
31.95773 131.6089 751
-409.8113 121.4619 683
-282.1699 -47.81698 700
-280.9606 -74.70104 697
-255.9921 79.24339 604
-396.1911 88.35278 687
-246.5237 33.63506 600
-407.6261 -286.649 665
-154.5518 -53.85626 318
-162.2008 -43.79319 280
-328.407 -193.5374 683
94.12211 66.7573 766
12.46597 61.39441 749
88.05288 17.11712 765
33.36184 26.10914 739
-206.1251 56.59616 713
-237.1961 52.29032 600
-192.3805 10.36763 710
-218.2989 44.2352 693
-34.83175 151.1329 547
-63.48005 103.5832 368
-10.74977 130.3821 744
-126.5909 136.0685 723
401.629 58.51131 762
319.4989 89.36991 809
429.4604 1.362278 827
392.5146 30.98176 817
-262.9831 134.426 613
-283.3243 141.4654 498
-247.3455 103.9376 602
-361.3157 136.0163 685
150.875 117.1797 468
-14.97211 88.96835 183
-79.16382 94.55945 370
-228.1306 138.2826 609
-205.836 126.6191 712
-225.176 115.0635 709
172.4796 139.124 294
-55.19699 113.7329 370
68.42452 88.19215 223
57.70402 88.58764 224
136.8978 138.1416 396
109.3858 135.0585 393
60.24059 99.85197 198
43.5776 101.0292 186
80.42954 98.67281 212
20.12547 93.76785 171
6.054191 91.35116 162
18.49725 88.17877 196
-163.0972 -44.11305 273
40.35454 87.16634 231
15290.06 -3526.35 19908
623.4296 -5.84669 880
588.6129 -60.08699 873
601.4343 -84.03197 868
404.2941 -28.70564 829
326.6258 -7.890313 809
407.8532 -93.36873 831
387.1571 -84.48416 820
-51.81195 89.6285 177
-132.5398 143.3335 273
-150.3649 143.3335 273
-173.68 144.9615 305
-217.6421 142.6766 348
192.2699 140.0441 280
170.4869 139.9382 273
204.3145 138.7968 281
249.6041 -15.1883 796
171.3909 -39.0345 778
171.1706 -82.46974 777
-413.2067 -334.7341 664
-451.7483 -329.1625 657
-436.7318 -342.4583 659
613.7441 62.12944 874
480.9782 96.42525 798
596.0722 40.29741 872
509.0777 20.75647 849
-192.4731 144.3576 314
87.42732 -57.26054 763
34.68196 -47.01991 751
144.5524 -66.83733 764
27.6769 -58.69499 751
10.51826 89.15368 209
3.923836 87.54939 204
20.5141 87.98086 230
10.51869 89.73215 233
2716.711 -1191.927 7260
-25.57273 155.0926 543
-296.3744 -311.3701 690
-358.1485 -330.7629 677
-320.9744 -352.8067 683
-364.9438 -358.6357 674
159.4442 139.0537 386
220.8862 137.8367 411
-307.9913 -239.1191 692
-382.275 -201.764 675
-308.3502 -265.5457 688
-382.6654 -253.1021 672
-35.96555 151.1329 547
-69.0066 100.8053 369
-37.10113 123.7617 739
-75.64681 122.9243 734
-191.78 -15.88805 716
-208.7114 -26.90582 713
-140.5776 -93.80486 716
-223.9056 -63.8678 705
-410.6909 -223.1844 670
-399.3805 -286.5323 672
-281.0817 -48.17971 700
-170.6569 -18.97075 303
-300.6651 -88.25318 690
-165.1384 -32.58355 290
289.97 82.25363 805
176.8776 75.29258 760
297.4788 17.17784 805
183.4857 9.344811 778
-206.4946 57.33516 713
-233.5295 69.34222 605
-169.5181 13.05249 716
-215.7479 30.47409 707
-137.754 143.2527 375
-84.03241 139.5458 428
-152.0804 141.4173 414
-246.2892 136.8343 604
-364.6212 139.6825 662
-236.8994 91.76314 604
-358.07 104.6768 689
-53.04112 -23.22849 737
-95.26899 -47.77766 727
-66.79007 -64.47528 737
-92.24096 -83.25121 721
92.17197 66.1005 763
60.8494 77.34907 757
87.5419 16.30294 764
1.93865 20.14444 731
-78.39687 95.3264 370
-233.9155 137.2874 606
-206.4946 126.058 713
-225.1759 114.3286 709
-0.2500398 149.4322 547
92.53437 125.9018 766
58.65031 117.6715 759
149.6624 116.2097 468
145.0365 139.6356 290
-236.8008 51.89279 599
-381.5489 48.69413 685
-235.2195 18.24661 595
-166.182 143.0866 349
-218.531 138.5678 388
-168.705 122.4277 352
-25.22079 88.76878 188
-1241.104 155.6871 1864
68.15099 88.35549 224
58.21926 89.14437 226
137.1767 138.4268 398
127.3279 136.2416 477
-166.6057 -35.30127 276
-56.53913 113.7329 370
402.9468 56.61115 763
312.4963 59.72737 805
404.0977 34.61202 803
393.8428 30.17192 818
-160.5987 -49.03154 276
-294.2268 -174.9358 685
-154.319 -61.62482 271
59.32384 98.531 197
50.98457 100.2809 191
42.13184 91.87264 186
39.73802 87.55882 233
20.45387 87.80658 228
-172.754 -18.33558 279
158.9903 89.18413 760
345.4628 122.4521 806
-137.2659 6.427305 722
243.4247 -102.3605 670
27.04909 -111.5645 628
2909.34 -1228.364 7435
-98.74088 -252.0958 609
-225.1393 -188.5564 588
-99.06515 -330.8126 611
-213.8058 -283.1413 587
-109.3788 -116.8839 605
-180.9597 -116.4093 593
-437.8576 -322.6257 657
-474.6271 -293.2101 657
-436.7318 -343.2779 659
-455.3792 -350.4338 654
-288.2575 -298.4739 686
-371.2307 -308.3411 674
-320.1249 -353.2314 683
-367.3752 -369.8427 667
71.96039 -30.09721 760
17.82222 -40.83981 749
143.6022 -67.3124 764
43.14535 -69.06089 752
247.9353 -16.6942 797
206.1269 -7.656237 785
265.7772 -85.08813 797
172.58 -83.16645 779
-320.8315 -241.0024 690
-381.8553 -203.0233 675
-283.1385 -260.0814 686
-370.6799 -255.1527 673
-1.270484 149.7723 547
74.89441 117.5084 761
57.63031 117.0452 758
-247.0405 136.0831 604
-378.1099 139.6916 664
-237.6321 90.86131 603
-357.885 103.5186 687
191.1659 139.9868 343
211.4288 139.5378 438
180.6991 132.24 464
138.1166 140.065 260
84.93657 92.12936 214
-175.5511 -36.41982 717
-209.1548 -28.23594 713
-140.5776 -95.14057 716
-15.47139 153.0103 544
-57.45945 112.3524 370
-113.2095 140.9324 396
-89.65193 140.6269 417
-133.7709 102.4828 346
289.4695 82.25363 805
179.2049 72.93156 770
298.48 16.17668 805
183.9695 9.828585 778
-85.51513 90.65434 366
-234.2924 136.5337 606
-206.4946 126.058 713
-234.2924 100.3574 606
403.5274 55.33242 765
338.364 91.49088 807
391.8081 28.64591 818
387.5902 13.45137 822
-26.22668 89.21783 182
-24.98699 88.65189 188
-206.4946 70.19297 713
-233.9057 68.58981 605
-169.726 11.7004 715
-222.1832 25.91376 610
-167.1344 143.2518 351
-223.1062 141.2883 397
-235.3823 81.862 603
-364.0683 67.83024 689
-250.4395 23.0953 596
-272.8561 -19.85748 699
-169.7181 -19.84711 302
-270.514 -86.91314 693
-164.5689 -33.01033 289
86.36503 89.23216 762
60.37869 77.34907 757
70.76094 41.27477 719
1.029554 20.14444 731
68.01168 88.07691 224
56.991 88.13712 214
148.5981 130.299 409
127.0313 135.945 477
-410.91 -223.6833 669
-439.1905 -259.6799 659
-53.95774 -23.6868 737
-90.69848 -12.44662 723
-67.70663 -64.93356 737
-74.82233 -91.05186 726
-300.2361 -120.0044 690
-159.6593 -46.53972 286
-293.3766 -175.6178 686
-1242.263 155.6871 1864
149.0804 115.9187 468
256.44 150.3047 769
116.9753 100.6375 487
1.694257 88.64128 191
59.07883 98.77599 197
50.8658 100.0434 191
52.83862 92.44983 193
39.78685 88.01812 235
20.73743 87.94835 228
49.32399 134.9659 450
17.2225 152.9234 551
-159.1978 -52.80972 264
-166.4341 -35.64453 276
343.5324 121.2991 805
476.8694 95.70024 792
160.1607 139.3274 266
-400.2912 98.10568 685
-69.88385 99.92802 370
-4.449469 3.800733 735
-173.68 144.9615 305
-218.8929 142.8436 350
243.4247 -104.027 670
26.65859 -113.9076 628
587.527 -60.62983 873
324.1104 -10.90874 809
2626.736 -1129.781 6496
-225.1393 -187.8251 588
-99.44508 -331.9524 611
-213.8058 -283.8713 587
-180.591 -118.6218 593
-301.2658 -119.4895 690
-157.9165 -52.43601 281
144.9923 138.176 366
210.7751 139.8647 438
182.1296 133.9129 465
-312.714 -211.5539 688
-328.7892 -194.7266 683
-284.1624 -260.0813 686
-348.6568 -276.0738 680
-267.6401 -45.93753 699
-172.2032 -11.81202 304
-271.9401 -86.0028 694
-166.7588 -26.78399 304
73.09467 -29.53004 760
18.35664 -22.36581 748
141.7062 -67.2243 763
42.02313 -69.62203 752
39.79913 87.20944 231
19.88675 88.1185 228
45.58799 130.1382 474
15.98904 153.7457 551
-191.9263 143.8499 314
58.16306 89.36926 226
22.18813 90.61964 174
22.25062 90.27187 203
1.266687 88.35625 191
-120.144 142.2702 386
-90.36819 140.2897 416
84.77691 92.28905 214
-186.0227 67.77843 710
-205.6736 71.15717 712
-149.5427 17.10732 718
-221.9084 25.3751 608
-139.509 -24.61469 716
-209.1548 -27.70384 713
-159.1867 -79.33293 718
-411.2927 -223.3489 668
-410.0613 -237.5895 666
126.7488 56.70716 776
45.39002 54.95333 752
69.05522 39.61006 718
-1.693205 20.63333 729
243.7538 93.68984 795
180.2238 73.2198 767
286.466 4.763427 805
193.01 39.3861 777
59.51986 99.07001 197
48.89815 96.40045 190
77.55093 94.32492 210
56.99101 88.4565 214
-54.50769 -22.0369 737
-92.18929 -11.89063 722
-67.70663 -64.93356 737
-76.13165 -89.59658 723
-223.1062 140.9921 397
-234.3572 71.29855 605
-355.839 81.08001 688
-297.1533 6.600543 635
149.7789 115.9187 468
114.3255 116.1918 496
256.44 149.157 769
131.8749 81.37708 487
-24.84669 88.65189 188
-160.7009 -48.85388 275
-173.6518 -17.14766 280
-166.2281 -35.43857 276
15.84395 142.5722 546
341.375 120.3961 807
470.9329 96.39297 788
337.7619 91.49088 807
159.5586 139.1991 265
-236.2822 81.86205 603
-72.09262 99.92805 370
-8.254873 4.331464 732
-149.7538 143.4014 273
205.2794 -5.891369 784
241.7852 -101.178 671
26.65859 -117.188 628
588.1785 -57.37262 873
324.1105 -9.70133 809
521.0577 -124.6663 739
2631.583 -1124.933 6496
-377.2609 -356.8637 666
-455.3792 -350.4338 654
-1631.188 -1634.504 4640
-51.57212 -294.2992 622
-214.2438 -282.9952 587
-166.8281 -116.5535 596
410.6871 56.19562 769
339.5085 89.21236 806
392.907 29.01223 818
345.1456 45.50952 799
131.0131 140.3073 279
175.3135 138.9945 325
79.80965 97.04138 211
59.29027 88.93517 228
163.0365 121.7878 457
110.4872 134.4611 485
126.7489 52.53797 776
46.06343 54.95333 752
75.57131 41.29462 725
67.1264 37.03835 718
108.9372 -5.771107 768
33.89746 -50.02736 751
87.61605 -58.94814 762
46.12468 -90.61715 753
193.1614 139.3058 280
160.9928 140.3073 279
209.5344 139.6907 311
192.3946 139.3213 343
-181.2695 144.5723 297
-193.4762 144.0889 317
-35.78635 139.0286 427
-60.22549 141.8969 475
7.634629 88.30306 192
254.3455 143.3315 771
132.1458 82.85516 488
40.73508 87.50391 234
36.077 132.5889 436
-10.36087 -13.54884 742
-91.66954 -13.2019 723
-76.13165 -90.89136 723
-185.1258 67.04807 709
-212.9855 78.91862 713
-148.8997 17.75028 718
-223.7176 24.78986 607
-156.3968 -13.09235 717
-209.1548 -28.34229 713
-156.615 -82.54757 718
-31.4873 88.93494 198
-169.7181 -20.11753 302
-166.6429 -31.01569 283
-159.71 -53.04611 264
-156.4929 -59.4547 261
15.84399 142.5722 546
184.1638 73.0058 772
468.8879 122.7877 828
343.4124 119.3769 805
482.5152 92.73032 799
49.6686 97.07885 191
242.8435 133.6276 385
184.5618 134.7769 468
-240.8802 89.12488 601
-371.4691 140.6389 661
-290.7947 5.377293 625
-218.9842 87.46799 612
-2.333082 17.92333 725
-167.082 142.5708 351
-39.03698 89.81186 210
-70.76734 98.6028 370
208.3529 -5.898852 785
242.6248 -102.2271 670
24.89207 -115.6936 626
516.053 -10.91546 847
327.7327 -10.42574 809
522.4255 -124.835 740
2631.584 -1130.75 6496
-308.5684 -267.2274 687
-411.9084 -224.2823 669
-336.8128 -317.8975 677
-423.4544 -312.9859 659
-1673.233 -1668.044 4821
-100.1193 -253.2471 609
-213.1925 -285.0978 587
-167.0242 -26.69588 303
-153.0606 -61.47887 298
-806.6412 -1312.512 6362
-165.227 -116.5535 596
-183.8761 83.0975 716
-206.0902 68.95869 713
-151.9858 18.5218 718
-209.5051 41.14517 709
411.8036 59.42359 768
329.8785 88.7847 810
393.0184 44.68516 770
346.0042 46.36811 799
125.915 55.03947 776
44.44732 53.33722 752
65.85739 37.1931 721
34.01124 23.7313 736
-129.0967 144.1699 379
-73.55041 97.80764 370
-125.9882 97.0338 350
-8.766254 -14.34615 742
-83.35364 -4.668944 725
-74.41339 -89.29563 729
146.5399 135.4728 412
96.46178 126.3691 392
1.430212 88.1999 190
135.1199 107.6984 464
254.3455 144.1599 771
-59.84082 141.8173 468
-170.4499 -19.40404 301
-167.5551 -31.01569 283
-166.3646 -37.2309 275
-153.4905 -62.20119 268
-31.53997 88.90914 197
-10.95805 89.54111 217
44.56553 102.0914 754
184.5141 74.47152 770
435.4242 74.08465 766
58.52734 88.88356 226
39.64659 87.87788 235
207.5229 139.4565 309
79.12947 96.58792 211
226.8833 136.8781 386
184.1675 135.4926 467
-239.5886 85.25005 601
-366.9946 134.1143 671
-224.8351 23.33061 603
-178.2124 3.883461 301
-3.971671 95.42487 740
-219.9394 90.60783 611
-3.934101 23.63457 733
-191.9826 143.7375 314
-229.5309 142.7453 410
203.0329 -5.048899 784
104.6744 -4.939421 767
20.88942 -117.2259 627
513.0185 -5.441734 845
324.2555 -10.42574 809
2631.319 -1142.761 6565
-226.4384 -189.2227 587
-439.8186 -321.9197 657
-1727.376 -1700.628 4977
-23.57732 -311.2626 627
-298.6656 -4.211709 654
-152.8661 -61.27256 297
-210.0961 -27.49879 711
-164.5866 -115.2726 596
48.96396 133.4256 464
30.07899 136.3628 450
323.6118 88.78476 810
412.4572 25.79493 800
350.1253 44.30756 799
120.2187 140.0167 392
92.92353 124.8528 392
149.0336 128.9667 474
39.34358 87.57486 235
17.8625 89.26131 217
-173.5693 -13.0858 290
-170.6888 -25.44916 278
197.8495 123.1702 586
188.1337 125.8273 702
-166.1129 -35.68227 274
-155.5137 -59.00072 274
-31.0319 88.65513 197
-4.163644 88.49418 228
146.2129 72.20335 767
65.10783 34.49948 723
336.1453 113.8516 810
414.3231 60.49259 769
57.25721 88.79328 220
233.0685 137.5112 369
77.03195 95.67242 209
242.5429 134.1884 384
182.1796 133.7132 465
-244.2736 84.75622 603
-364.1754 135.4399 669
-225.6126 24.10817 603
-114.8338 96.82645 729
-220.0395 131.7879 627
-125.076 6.53125 723
-210.0022 5.654996 626
-200.4103 138.0836 363
-75.45879 97.80764 370
204.0439 -5.048868 784
104.6745 -4.93939 767
2422.037 -1238.829 7013
17.62731 -115.4245 626
507.5706 -5.441701 845
322.4133 -11.44053 807
2878.437 -1240.988 7347
-329.5231 -194.6287 683
-283.204 -259.1722 686
-433.9629 -1468.701 4538
-299.552 -9.569214 675
-152.9965 -59.55758 298
-119.4823 -10.24969 723
-685.9328 -1377.596 6636
-180.5803 -118.5156 593
-248.526 109.7662 602
-265.3122 134.9753 615
-238.1365 70.87791 604
-268.3778 71.46465 609
-42.62759 137.9633 485
-3.132498 88.91457 230
-161.7576 -39.72993 298
-166.5406 -44.66004 262
-152.9426 -61.65552 297
191.3819 127.2704 698
111.618 90.827 774
168.0125 68.82195 769
64.52019 31.40173 729
458.0233 141.0373 815
418.9796 61.84292 771
354.8044 42.09676 804
117.5013 135.6876 477
229.3713 135.2423 377
85.68871 87.91824 217
228.2696 135.2367 387
189.1482 137.4724 468
-364.7687 135.0075 672
-225.7943 25.88812 601
-178.9559 4.551654 299
-111.4498 92.31438 729
-208.5888 110.3014 714
-3.190913 24.8702 736
-209.0911 3.771193 635
-201.5145 137.7149 365
-302.2493 144.2884 462
-77.17632 94.94507 370
87.38426 -86.18014 751
20.59887 -118.7085 628
426.3776 -10.44437 827
326.9677 -10.21705 809
2801.27 -1209.23 7094
-440.9848 -1447.635 4538
-1698.562 -1740.172 5017
-282.4848 -47.8335 700
-172.9708 -14.38222 289
-225.5993 -94.44801 586
-111.2969 -9.194077 728
-182.0735 -55.41898 714
-706.4692 -1377.596 6636
-178.7451 -117.598 593
